ncols    269
nrows    58
xllcorner    0
yllcorner    950
cellsize    10
NODATA_value    -9999
-9999 -9999 -9999 -9999 -9999 -9999 -12.5 -6.2625 -5.2525 -4.7425 -4.6875 -4.745 -4.585 -4.62 -4.79 -5.02 -6.01 -7.105 -7.4475 -7.2775 -6.77 -5.49 -3.5625 -3.095 -2.0075 -1.42 -1.0175 -0.9675 -0.99 -1.0375 0.382 0.375 0.441 0.445 0.577 0.996 1.558 2.152 2.475 2.493 2.175 1.767 1.987 2.272 2.465 2.664 2.778 2.909 3.03 3.224 3.418 3.507 3.508 3.482 3.461 3.403 3.238 3.225 3.285 2.802 2.117 1.703 1.511 1.565 1.937 2.588 3.207 3.529 3.617 3.633 3.783 3.937 3.996 4.079 4.222 4.268 4.274 4.41 4.563 4.629 4.657 4.811 5.02 6.03 7.31 8.725 10.075 10.975 11.105 10.595 9.935 9.315 7.88 7.23 7.225 7.245 7.84 8.63 9.815 10.34 10.35 11.715 12.88 13.405 13.235 12.665 12.185 12.445 13.005 13.555 13.8 14.16 14.865 15.33 15.54 15.64 15.47 15.03 14.405 13.785 13.395 13.27 12.905 12.26 11.87 11.235 9.775 8.285 8.865 8.565 9.495 10.71 11.64 12.04 11.69 11.085 11.69 12.44 13.3 13.935 14.45 14.7 14.635 14.585 14.695 14.79 14.33 13.845 13.445 13.09 12.85 12.025 10.43 9.27 8.77 8.52 8.935 9.795 9.33 7.005 5.335 5.12 5.61 6.275 7.485 8.71 8.97 8.435 7.455 5.76 4.61 4.284 4.611 4.859 4.824 4.801 4.806 4.782 4.783 4.772 4.744 4.765 4.794 4.84 4.939 4.982 4.972 4.944 4.88 4.902 5.06 5.685 6.37 7.085 7.815 8.585 9.405 10.225 11.015 10.48 8.89 8.455 9.39 11.07 12.205 12.68 12.895 12.995 13.225 13.625 13.995 13.405 12.86 12.435 12.775 13.68 15.01 16.615 17.075 16.44 15.86 15.545 15.72 16.045 16.625 17.285 17.21 16.71 16.875 17.325 17.775 18.54 19.485 20.59 21.91 22.22 22.39 22.77 22.62 22.86 23.79 24.34 24.92 26 27.26 28.31 28.71 29.01 29.39 29.79 29.72 29.59 30.28 31.17 32.02 -9999 -9999 -9999 -9999 -9999 -9999 -9999 -9999 -9999 -9999 -9999 -9999 -9999 -9999
-9999 -9999 -9999 -9999 -9999 -9999 -12.5 -6.9125 -5.8475 -5.1175 -4.8925 -4.9125 -5.0775 -5.135 -5.365 -5.565 -5.6625 -6.695 -7.39 -7.44 -7.29 -6.3725 -5.5925 -5.3575 -3.505 -2.4025 -1.5375 -1.0625 -0.95 -1.0025 -0.96 0.427 0.526 0.54 0.575 0.871 1.478 2.014 2.288 2.178 1.717 1.696 1.994 2.233 2.509 2.741 2.905 3.048 3.185 3.314 3.408 3.411 3.402 3.376 3.316 3.298 3.45 3.518 3.513 3.236 2.645 2.116 1.69 1.497 1.66 2.128 2.709 3.099 3.354 3.509 3.553 3.423 3.239 3.295 3.754 4.112 4.084 4.336 4.551 4.562 4.533 4.746 4.955 6.18 7.86 9.315 10.29 10.95 11.305 11.16 10.965 10.16 9.57 9.195 9.2 9.54 9.89 10.44 11.045 11.355 10.935 11.475 12.685 13.175 13.06 12.8 12.795 13.03 13.195 13.38 13.44 13.945 14.62 15.015 15.1 15.06 14.755 14.02 13.315 12.785 12.625 12.695 12.235 11.54 11.325 10.8 9.265 7.315 6.82 7.395 9.445 10.69 11.405 11.615 10.69 10.755 12.01 12.65 13.19 13.705 13.94 13.83 13.66 13.87 14.415 14.78 14.54 14.225 14.325 14.32 13.96 12.945 11.685 10.67 9.875 9.69 10.12 10.225 8.56 6.4 5.5 5.925 6.46 7.04 8.005 8.86 8.63 7.82 6.785 5.225 4.601 4.45 4.927 6.24 6.12 5.825 5.51 5.31 5.345 5.165 5.08 4.987 4.953 4.995 5.795 6.13 6 5.83 5.54 5.505 5.905 6.325 6.75 7.17 7.595 8.065 8.53 8.93 9.3 8.69 7.59 7.905 9.145 10.57 11.435 11.64 11.54 11.315 11.755 12.62 12.785 12.05 11.41 11.28 11.89 12.93 14.52 16.315 17.27 17.03 16.565 16.395 16.575 16.865 17.435 18.42 18.835 18.305 18.345 19.09 19.445 19.51 19.78 20.74 21.52 21.14 21.26 21.44 21.52 22.69 24.19 25.13 25.89 26.85 27.41 27.85 28.92 30.09 30.84 31.34 31.18 30.66 30.84 31.28 31.79 -9999 -9999 -9999 -9999 -9999 -9999 -9999 -9999 -9999 -9999 -9999 -9999 -9999 -9999
-9999 -9999 -9999 -9999 -9999 -9999 -12.5 -6.99 -6.11 -5.4 -5.2825 -5.285 -5.51 -5.6875 -6 -6.445 -5.91 -6.36 -7.3325 -7.47 -7.3875 -7.0175 -6.99 -6.4475 -4.8575 -3.58 -2.4525 -1.7825 -1.2 -1.005 -0.98 0.427 0.524 0.6 0.64 0.834 1.349 1.837 1.95 1.6 1.545 1.954 2.263 2.449 2.634 2.805 2.984 3.123 3.235 3.323 3.357 3.34 3.32 3.275 3.228 3.335 3.503 3.586 3.583 3.511 3.311 2.622 1.846 1.528 1.575 1.773 1.968 2.249 2.513 2.653 2.634 2.604 2.682 2.769 2.967 3.375 3.746 4.06 4.231 4.175 4.4 4.688 4.966 6.52 7.615 8.99 10.45 11.08 11.26 11.205 11.105 10.93 10.66 10.31 10.27 10.49 10.73 11.105 11.32 11.59 11.605 11.38 12.205 12.715 12.93 13.03 13.135 13.225 13.11 12.87 13.06 13.655 14.13 14.56 14.51 14.265 13.985 13.19 12.275 11.745 12.07 12.045 11.14 10.52 10.735 9.36 7.085 6.05 6.66 7.065 7.495 8.285 9.115 9.35 9.045 10.045 11.085 11.705 12.26 12.83 13.035 12.925 13.15 13.755 14.31 14.455 14.115 13.84 14.265 14.555 14.49 13.845 12.6 11.325 10.915 11.125 11.24 10.045 7.71 6.115 6.17 7.145 7.75 8.08 8.62 8.93 8.12 6.8 5.59 4.893 4.563 4.538 5.435 7.505 8 7.65 6.89 6.685 7.225 7.25 6.97 6.365 5.895 5.9 6.795 7.31 7.235 6.83 6.52 6.565 6.94 7.265 7.56 7.77 7.885 7.97 8 7.955 7.895 7.235 6.81 7.535 8.63 9.55 10.21 10.61 10.395 10.16 11.04 11.81 11.61 10.895 10.275 10.78 11.87 13.025 14.545 16.205 17.33 17.5 17.365 17.415 17.595 17.9 18.395 19.365 20.18 20.25 20.92 21.54 20.6 19.695 19.13 18.905 18.915 18.57 18.555 18.94 20.11 22.64 24.19 25.37 26.13 26.1 26.07 27.35 29.02 30.72 31.81 32.63 32.49 31.74 31.62 31.89 -9999 -9999 -9999 -9999 -9999 -9999 -9999 -9999 -9999 -9999 -9999 -9999 -9999 -9999 -9999
-9999 -9999 -9999 -9999 -9999 -9999 -12.5 -6.5125 -5.9525 -5.7875 -5.81 -5.9425 -6.43 -6.7275 -6.495 -6.61 -6.14 -6.015 -6.9125 -7.5025 -7.51 -7.3825 -7.33 -7.01 -6.2425 -4.63 -4.0375 -2.88 -1.78 -1.065 -0.9325 0.43 0.512 0.587 0.643 0.807 1.197 1.506 1.367 1.511 1.952 2.264 2.482 2.627 2.827 2.947 3.062 3.157 3.216 3.271 3.269 3.221 3.182 3.135 3.157 3.297 3.497 3.598 3.629 3.275 3.086 2.51 1.798 1.511 1.658 2.009 2.296 2.319 2.309 2.413 2.665 2.812 3.016 3.326 3.239 3.034 3.182 3.341 3.43 3.687 4.189 4.535 4.96 7.05 8.74 9.72 10.71 11.135 11.015 10.475 10.295 10.225 9.765 9.635 9.88 10.255 10.5 10.655 10.945 11.51 12.03 11.895 12.03 12.355 12.905 13.37 13.405 13.175 12.635 12.07 12.715 13.62 13.98 14.23 13.905 13.21 12.95 12.37 11.375 10.785 11.4 11.255 9.755 9.645 9.435 6.845 5.715 7.075 8.42 9.07 7.98 7.645 8.255 8.61 9.085 9.39 9.46 9.79 10.55 11.605 11.865 12.14 13.035 13.76 14.03 13.92 13.575 13.425 13.795 14.08 14.445 14.33 13.145 12.615 12.595 12.47 11.39 9.135 7.665 6.65 7.13 8.505 9.19 9.355 9.335 8.85 7.725 6.425 5.47 4.948 4.626 4.615 6.025 8.605 9.81 9.68 8.59 8.135 9.125 9.515 8.86 7.94 7.17 6.815 7.77 8.42 8.33 7.68 7.385 7.32 7.235 7.105 6.98 6.88 6.805 6.73 6.655 6.575 6.52 6.33 6.295 7.06 7.95 8.74 9.35 9.595 9.17 9.195 10.005 10.49 10.245 9.515 9.795 11.14 12.465 13.59 14.89 16.225 17.125 17.535 17.845 18.255 18.645 19.06 19.485 20.61 22.33 23.17 23.55 22.47 20.24 19.015 18.085 17.33 16.92 16.81 17.255 17.85 18.965 20.18 22.15 23.76 24.15 24.04 25.44 27.91 29.78 31.07 32.16 33.02 33.17 32.46 32.36 -9999 -9999 -9999 -9999 -9999 -9999 -9999 -9999 -9999 -9999 -9999 -9999 -9999 -9999 -9999 -9999
-9999 -9999 -9999 -9999 -9999 -9999 -12.5 -6.7425 -6.36 -6.295 -6.2475 -6.62 -7.545 -8.085 -7.755 -6.7575 -6.735 -6.3675 -6.495 -7.38 -7.5225 -7.4975 -7.4425 -7.27 -6.7075 -6.37 -5.7675 -4.0725 -2.5525 -1.2175 -0.9425 -0.9825 0.491 0.56 0.641 0.778 0.95 1.026 1.367 1.891 2.285 2.476 2.641 2.78 2.892 2.987 3.027 3.12 3.147 3.166 3.17 3.114 3.047 3.073 3.16 3.309 3.493 3.552 3.532 3.213 2.692 2.056 1.563 1.47 1.752 2.215 2.77 3.063 3.05 3.079 3.342 3.439 3.348 3.717 3.868 3.698 3.425 3.559 3.513 3.584 4.136 4.618 5.485 7.995 9.71 10.25 10.38 9.805 8.73 7.52 7.32 7.695 7.815 8.195 8.65 9.22 9.775 10.105 10.59 11.64 12.615 12.825 12.715 12.855 13.21 13.54 13.635 13.3 12.515 11.44 12.135 13.25 13.695 13.765 13.21 11.975 11.16 10.985 10.425 10.37 11.075 10.53 8.32 7.64 6.42 5.14 6.645 8.3 9.325 9.89 9.065 8.3 9.275 9.96 10.47 10.575 10.38 10.565 10.06 10.355 11.23 12.05 12.745 13.165 13.21 13.035 13 13.415 13.82 14.065 14.525 14.68 14.33 14.24 13.92 12.785 10.465 9.345 9.085 7.6 7.83 9.565 10.6 10.76 10.29 9.245 7.81 6.7 6.15 5.545 4.732 4.631 5.94 8.83 10.815 11.455 10.52 9.79 10.71 11.44 10.58 9.445 8.345 7.69 8.71 9.495 9.21 8.555 8.36 8.13 7.77 7.435 7.09 6.73 6.37 6.01 5.56 5.175 4.995 5.155 5.64 6.6 7.625 8.24 8.46 8.195 7.635 7.8 8.225 8.645 8.74 8.825 10.22 11.66 12.94 14.095 15.155 15.82 16.175 16.765 17.535 18.295 18.95 19.725 20.92 22.16 22.76 23.41 23.13 21.04 19.26 18.1 17.05 16.305 16.1 16.69 17.795 18.48 18.615 18.985 19.64 20.77 21.96 23.33 25.15 27.11 28.71 30.15 31.8 32.59 32.78 32.75 32.94 -9999 -9999 -9999 -9999 -9999 -9999 -9999 -9999 -9999 -9999 -9999 -9999 -9999 -9999 -9999 -9999
-9999 -9999 -9999 -9999 -9999 -9999 -12.5 -7.3925 -7.0625 -6.965 -6.7225 -7.4725 -8.7825 -9.3175 -8.855 -7.64 -6.87 -6.815 -6.31 -6.9175 -7.4875 -7.525 -7.5025 -7.37 -7.165 -6.94 -6.4125 -5.125 -3.1425 -1.42 -0.9825 -0.94 0.448 0.498 0.575 0.67 0.853 1.173 1.661 2.057 2.313 2.519 2.662 2.768 2.856 2.954 3.002 3.048 3.038 3.053 3.069 3.11 3.159 3.148 3.208 3.308 3.462 3.534 3.473 2.908 2.135 1.672 1.457 1.508 1.893 2.449 3.025 3.461 3.658 3.736 3.859 3.869 3.642 3.87 4.161 4.262 4.076 4.161 3.987 3.64 4.137 4.577 5.375 7.675 9.205 8.955 7.54 5.955 5.22 5.665 6.595 7.505 8.105 8.71 8.96 9.09 9.74 10.485 10.975 11.895 13.14 13.62 13.625 13.53 13.705 13.915 14.095 13.54 12.335 10.92 11.13 12.78 13.165 12.88 12.185 10.995 9.935 9.345 9.455 10.52 10.715 9.87 7.32 4.967 4.955 5.82 7.79 9.335 10.06 10.275 9.92 9.185 9.945 10.935 11.59 11.91 11.91 11.98 11.365 10.435 10.725 11.265 11.755 11.9 12.04 12.39 13.1 13.935 14.335 14.54 14.82 15.04 15.1 15.155 14.345 12.03 10.635 11.185 10.78 8.645 8.26 9.915 11.475 11.835 11.335 10.12 8.67 7.51 7.28 6.695 4.915 4.626 4.959 7.415 10.125 12.01 12.155 11.82 12.185 12.725 11.885 10.71 9.455 8.865 9.65 10.57 10.45 9.7 9.255 8.81 8.305 7.905 7.505 7.105 6.71 6.32 5.825 5.425 5.17 4.952 4.983 5.695 6.435 6.785 6.71 6.41 6.08 6.3 6.51 6.955 7.51 8.61 10.29 11.57 12.57 13.61 14.455 14.765 15.12 15.97 17.06 17.86 18.42 19.425 21.11 21.75 21 21.07 20.69 19.175 17.855 16.705 15.93 15.905 16.23 16.8 17.91 19.165 19.67 19.675 19.76 20.73 22.37 23.58 24.73 25.99 27.57 29.22 30.59 30.53 30 30.56 31.59 -9999 -9999 -9999 -9999 -9999 -9999 -9999 -9999 -9999 -9999 -9999 -9999 -9999 -9999 -9999 -9999
-9999 -9999 -9999 -9999 -9999 -9999 -12.5 -8.07 -8.2075 -8 -7.4825 -8.235 -9.655 -9.9025 -9.235 -8.3525 -7.1825 -6.92 -6.5625 -6.7975 -7.3475 -7.4675 -7.4775 -7.39 -7.29 -7.1625 -6.8425 -5.555 -3.315 -1.48 -1.065 -0.9325 -1.02 0.458 0.55 0.697 0.884 1.1 1.369 1.638 2.017 2.337 2.487 2.561 2.713 2.862 2.97 2.999 2.966 2.931 2.911 2.966 2.937 3.034 3.169 3.324 3.441 3.477 3.158 2.283 1.747 1.5 1.421 1.592 2.189 2.775 3.239 3.639 3.872 3.97 4.074 4.113 3.978 3.98 4.322 4.594 4.623 4.642 4.336 3.738 4.176 4.607 4.738 4.749 4.991 4.979 4.775 4.865 5.625 6.91 8.27 9.175 9.435 9.875 10.22 10.525 11.105 11.64 12.115 12.81 13.835 14.35 14.42 14.3 14.34 14.685 14.79 13.715 11.76 10.13 10.395 11.855 12.125 11.605 10.74 9.93 8.875 8.435 9.585 10.42 9.455 7.85 5.08 4.869 6.47 7.98 8.635 9.62 10.53 10.725 10.785 10.255 10.245 11.4 12.095 12.48 12.66 12.7 12.26 11.31 11.085 11.455 11.845 11.905 12.085 12.635 13.405 14.345 14.85 15.01 15.17 15.425 15.485 15.39 14.045 11.95 12.265 12.765 11.82 9.495 8.755 10.43 12.185 12.6 11.97 10.62 9.25 8.835 8.95 7.97 5.69 4.725 4.791 5.05 7.395 10.46 12.34 13.035 13.36 13.765 13.185 12.195 10.895 10.29 10.64 11.54 11.77 10.99 10.32 10.11 9.74 9.38 9.03 8.685 8.345 8.015 7.69 7.36 7.005 6.2 5.305 5.1 5.25 5.465 5.61 5.73 6.04 6.495 6.725 6.6 6.78 7.82 9.45 10.98 12.005 12.755 13.57 14.255 14.885 15.56 16.385 16.86 17.245 18.775 19.885 19.78 19.26 18.93 19.185 18.2 16.68 15.33 15.035 15.68 16.47 17.405 18.62 19.785 20.99 21.21 20.85 21.42 22.52 24.12 25.51 26.64 28.23 29.25 28.94 27.48 26.48 27.39 29.4 -9999 -9999 -9999 -9999 -9999 -9999 -9999 -9999 -9999 -9999 -9999 -9999 -9999 -9999 -9999 -9999
-9999 -9999 -9999 -9999 -9999 -9999 -12.5 -9.14 -9.63 -9.4325 -8.5875 -9.085 -10.2325 -10.1175 -9.3425 -8.5275 -7.69 -6.95 -6.95 -6.9825 -7.31 -7.395 -7.4375 -7.39 -7.3525 -7.27 -6.935 -5.1625 -2.695 -1.2275 -1.095 -0.9425 -1.045 0.491 0.599 0.791 0.948 1.13 1.243 1.318 1.496 1.821 2.074 2.455 2.695 2.806 2.892 2.919 2.85 2.77 2.648 2.666 2.834 3.02 3.179 3.336 3.425 3.429 2.769 1.918 1.544 1.43 1.458 1.887 2.589 3.139 3.476 3.709 3.832 3.957 4.137 4.228 4.227 4.197 4.371 4.725 4.887 4.915 4.593 3.951 3.85 4.04 4.14 4.245 4.388 4.41 4.637 4.984 6.55 8.1 9.505 10.595 10.995 11.315 11.815 12.14 12.555 12.95 13.37 13.82 14.61 14.925 14.91 14.705 14.495 14.945 15.085 14.145 12.26 9.61 9.69 10.74 10.595 10.105 9.23 8.53 7.985 8.755 9.655 9.67 8.31 5.925 4.789 5.45 8.11 9.24 9.425 9.885 10.855 11.23 11.5 11.255 10.695 11.335 12.095 12.525 12.84 12.965 12.61 11.84 11.875 12.54 12.915 12.68 12.535 13.17 14.12 14.87 15.45 15.67 15.7 15.835 15.92 15.67 14.38 12.73 13.685 13.5 11.81 10.14 9.475 11.39 13.015 13.28 12.35 11.295 10.415 10.625 10.375 8.7 6.48 4.894 4.986 5.5 5.65 8.185 11.085 12.91 13.7 14.23 14.325 13.79 12.69 11.735 11.96 13 13.445 12.715 11.46 10.885 10.84 10.57 10.275 9.975 9.67 9.37 9.07 8.765 8.505 7.735 6.485 5.57 5.365 5.565 6.335 6.975 7.745 8.245 8.41 7.985 6.975 7.375 8.57 10.065 11.03 12.145 13.465 14.245 14.595 14.905 15.275 15.255 15.56 17.295 18.39 18.565 18.275 17.53 17.08 16.385 14.895 14.44 14.89 15.79 16.905 18.165 19.345 20.68 22.34 23.34 23.35 23.76 24.74 26.32 27.51 28.11 28.39 27.53 25.67 24.02 24.03 26.32 28.86 -9999 -9999 -9999 -9999 -9999 -9999 -9999 -9999 -9999 -9999 -9999 -9999 -9999 -9999 -9999 -9999
-9999 -9999 -9999 -9999 -9999 -9999 -12.5 -10.6575 -11.0725 -10.835 -10.085 -10.38 -10.7075 -10.195 -9.335 -8.51 -7.94 -7.295 -7.0725 -7.385 -7.525 -7.485 -7.41 -7.3375 -7.245 -7.19 -6.595 -4.18 -1.75 -1.0925 -1.1475 -1.0925 0.455 0.501 0.603 0.865 1.094 1.384 1.672 1.764 1.567 1.629 2.22 2.544 2.666 2.682 2.793 2.852 2.83 2.708 2.568 2.692 2.929 3.118 3.273 3.402 3.399 3.279 2.341 1.656 1.398 1.408 1.893 2.585 3.103 3.372 3.518 3.558 3.654 3.951 4.167 4.279 4.382 4.493 4.582 4.817 4.994 4.988 4.783 4.418 4.106 4.116 4.325 4.598 4.752 4.754 4.751 4.902 6.345 8.705 10.41 11.555 12.175 12.475 12.86 13.22 13.53 13.86 14.175 14.605 14.955 14.965 15.07 14.85 14.135 14.025 14.37 13.05 10.97 8.545 8.985 9.845 9.75 9.265 8.47 7.45 7.715 9.22 9.68 8.255 5.6 4.782 4.895 7.155 9.14 9.39 9.67 10.295 10.995 11.435 11.905 12.065 11.47 11.215 11.85 12.35 12.755 13.105 12.895 12.245 12.425 13.295 13.875 13.615 13.16 13.59 14.66 15.385 16.02 16.335 16.335 16.345 16.355 16.025 14.955 13.505 14.31 13.935 12.625 11.18 10.595 12.865 14.325 14.445 13.555 12.535 11.745 12.13 11.67 9.84 7.475 5.22 5.65 7.285 6.61 6.455 8.82 11.285 12.66 13.555 14.79 14.94 13.86 12.565 12.69 13.865 14.605 14.06 12.625 11.46 11.19 11.095 10.82 10.53 10.235 9.945 9.665 9.675 10.17 9.675 7.99 6.55 5.785 6.025 7.06 8.19 9.315 10.115 10.245 9.42 8.01 7.185 7.5 8.565 9.96 11.79 12.975 13.325 13.42 13.785 13.94 13.45 14.205 15.955 17.375 17.75 17.445 16.52 15.26 14.405 14.02 14.75 15.435 16.27 17.415 18.59 19.615 21.27 23.19 24.55 25.46 26.12 26.83 27.99 28.92 28.82 26.94 24.21 22.58 22.05 23.38 26.19 27.77 29.52 -9999 -9999 -9999 -9999 -9999 -9999 -9999 -9999 -9999 -9999 -9999 -9999 -9999 -9999 -9999
-9999 -9999 -9999 -9999 -9999 -9999 -12.5 -11.82 -12.0225 -11.7225 -11.115 -10.8425 -10.7825 -10.1975 -9.2875 -8.4625 -7.94 -7.59 -7.215 -7.52 -7.7075 -7.59 -7.34 -7.105 -6.9 -6.6625 -4.6725 -2.56 -1.165 -1.0475 -1.02 -1.02 0.482 0.509 0.598 0.813 1.204 1.54 1.831 2.025 1.935 1.707 2.106 2.366 2.468 2.555 2.709 2.76 2.661 2.523 2.55 2.82 3.082 3.27 3.388 3.379 3.044 2.762 1.911 1.442 1.339 1.605 2.74 3.178 3.255 3.18 3.227 3.368 3.627 3.96 4.168 4.345 4.508 4.684 4.814 4.918 5.2 5.5 5.24 4.74 4.604 4.569 4.699 4.983 5.87 5.895 5.75 5.25 6.3 8.595 10.355 11.72 12.55 12.885 13.36 13.935 14.11 14.22 14.4 14.635 14.9 15.005 15.06 14.835 13.97 12.565 11.95 12.63 11.22 8.09 7.415 8.96 9.525 9.215 8.31 7.005 7.725 9.13 8.255 4.997 4.635 4.883 6.56 8.76 9.365 9.065 9.41 9.96 10.87 11.555 12.335 12.56 12.165 11.84 12.48 13.085 13.425 13.635 13.565 13.125 13.43 14.01 14.42 14.215 13.67 13.82 14.745 15.555 16.265 16.685 16.735 16.825 16.855 16.555 15.73 14.35 14.725 14.755 13.47 11.495 11.435 13.72 15.495 15.84 14.83 13.15 13.045 13.23 12.555 10.55 8.08 5.85 6.18 8.19 8.295 7.045 7.29 9.22 10.8 12.465 14.515 15.51 14.775 13.905 13.71 14.355 15.125 15.095 13.575 12.295 11.695 11.49 11.345 11.065 10.77 10.505 10.695 11.46 11.895 11.16 9.555 7.915 6.58 6.23 7.36 8.715 10.21 11.795 12.38 11.36 9.265 8.09 7.495 7.715 8.625 10.19 11.3 11.565 11.615 12.2 12.195 11.875 13.365 15.03 16.08 16.6 16.29 15.14 14.26 13.45 14.675 15.875 16.17 16.82 17.695 18.415 19.035 19.905 21.76 23.68 25.71 26.53 25.64 25.52 26.45 26.06 23.79 21.29 20.34 20.67 22.55 24.5 26.19 29.05 31.38 -9999 -9999 -9999 -9999 -9999 -9999 -9999 -9999 -9999 -9999 -9999 -9999 -9999 -9999
-9999 -9999 -9999 -9999 -9999 -9999 -12.5 -12.205 -12.19 -11.8125 -10.8525 -10.3 -10.5275 -10.0075 -9.105 -8.3 -7.88 -7.665 -7.565 -7.41 -7.55 -7.6575 -7.3875 -6.85 -6.0325 -4.8025 -2.7475 -1.35 -1.135 -1.0675 -0.955 0.382 0.474 0.535 0.661 0.927 1.311 1.668 1.806 1.841 2.031 1.866 1.856 2.182 2.366 2.456 2.55 2.505 2.433 2.448 2.675 2.984 3.195 3.361 3.417 3.224 2.787 2.406 1.593 1.32 1.383 1.921 3.086 3.136 2.872 2.963 3.229 3.505 3.742 3.973 4.191 4.425 4.627 4.83 4.942 4.985 5.125 5.535 5.825 5.075 5.075 4.981 5.62 6.96 7.97 8.17 7.705 6.635 6.595 8.955 10.78 11.935 12.69 13.135 13.695 14.25 14.25 14.14 14.245 14.38 14.39 14.64 15 14.61 13.55 11.695 9.23 9.66 9.92 8.975 6.36 7.365 8.745 8.385 7.07 6.7 8.295 8.665 5.82 4.57 4.776 5.94 7.63 8.605 8.395 8.58 9.85 10.495 11.33 12.23 12.9 13.255 13.13 12.78 13.405 14.105 14.35 14.535 14.485 14.15 14.335 14.76 14.905 14.68 14.1 13.94 14.58 15.405 16.15 16.73 17.065 17.335 17.37 17.095 16.37 15.2 15.365 15.26 13.66 11.89 11.85 13.72 15.835 16.64 15.625 14.39 14.235 13.66 12.79 10.695 8.135 6.31 6.975 9.075 9.765 8.85 7.59 7.72 9.45 12.005 13.865 14.945 15.125 15.175 15.185 15.505 15.98 15.725 14.445 13.32 12.455 11.975 11.8 11.595 11.36 11.7 12.61 13 13.03 12.375 10.805 8.76 7.07 6.535 7.555 9.29 11.39 13.45 14.335 13.365 10.86 9.275 8.61 8.265 7.875 8.42 9.37 9.63 9.74 10.04 9.875 10.21 11.665 12.9 13.825 14.88 14.91 13.475 12.7 13.11 14.69 15.66 16.055 16.655 17.285 17.76 18.295 19.085 20.25 22.85 24.98 24.44 21.85 21.16 22.29 21.22 19.81 19.315 19.335 19.865 21.6 23.77 26.55 29.57 30.73 30.57 31.67 -9999 -9999 -9999 -9999 -9999 -9999 -9999 -9999 -9999 -9999 -9999 -9999
-9999 -9999 -9999 -9999 -9999 -9999 -12.5 -11.905 -11.6775 -11.285 -10.315 -9.65 -10.075 -9.5975 -8.83 -8.175 -7.855 -7.775 -7.7525 -7.6025 -7.305 -7.525 -7.5575 -7.2525 -6.2275 -3.84 -1.5575 -1.0075 -1.065 -1.075 -0.965 0.412 0.499 0.576 0.695 0.966 1.348 1.664 2.095 2.197 2.219 2.057 1.792 1.922 2.18 2.384 2.184 2.32 2.487 2.632 2.906 3.152 3.326 3.385 3.24 3.025 2.624 2.102 1.47 1.353 1.522 1.938 2.431 2.469 2.74 3.172 3.472 3.703 3.852 3.999 4.225 4.462 4.688 4.884 4.914 4.886 4.902 5.23 6.105 6.43 6.795 7.075 8.31 9.485 9.965 9.99 9.465 8.52 7.25 8.71 10.515 11.535 12.39 13.055 13.75 14.13 13.91 13.6 13.56 13.555 13.685 14.395 14.78 14.21 13.315 12.11 10.28 9.02 7.145 8.495 6.37 6.06 7.21 6.4 5.68 7.265 8.85 7.465 4.715 4.465 4.721 4.984 6.085 6.985 7.625 8.845 10.245 11.22 12.04 12.84 13.415 13.775 13.825 13.88 14.3 14.92 15.18 15.37 15.35 15.155 15.075 15.23 15.275 15.075 14.6 14.385 14.54 15.2 15.9 16.515 17.035 17.5 17.715 17.53 16.955 16.215 16.29 15.95 14.305 12.605 12.455 14.115 16.32 17.3 16.6 15.895 14.615 13.125 11.92 10.035 7.965 6.54 7.605 9.99 11.105 10.67 9.31 8.065 8.645 10.175 11.715 12.7 13.78 14.71 15.14 15.555 16.29 16.22 15.45 14.745 13.86 12.615 12.4 12.195 12.63 13.71 14 13.925 13.33 11.845 10.03 8.585 7.66 6.825 7.56 9.735 12.13 14.28 15.39 14.84 12.73 10.985 9.975 9.675 9.02 8.475 8.53 8.715 8.995 9.28 9.275 9.385 9.99 10.795 11.81 12.76 12.565 12 12.615 13.39 14.14 14.67 15.14 15.835 16.61 17.365 18.29 19.395 20.92 22.92 23.42 21.48 19.37 19.175 19.675 19.075 18.44 18.57 19.36 20.31 22.03 24.69 27.7 29.59 28.99 28.27 29.96 32.4 35 -9999 -9999 -9999 -9999 -9999 -9999 -9999 -9999 -9999 -9999
-9999 -9999 -9999 -9999 -9999 -9999 -12.5 -10.775 -10.4125 -10.06 -9.2725 -8.965 -9.575 -9.18 -8.5775 -8.1025 -7.8225 -7.7275 -7.7675 -7.8275 -7.5475 -6.9875 -7.22 -7.3225 -5.9425 -2.86 -1.1075 -1.0375 -1.1 -1.0875 0.43 0.472 0.545 0.603 0.729 1.012 1.33 1.551 2.184 2.516 2.506 2.252 2.047 2.178 2.464 2.56 2.599 2.785 2.886 2.897 2.87 3.411 3.514 3.259 2.754 2.544 2.286 1.782 1.371 1.437 1.721 2.05 2.405 2.539 2.828 3.22 3.568 3.805 3.928 4.064 4.268 4.489 4.591 4.596 4.605 4.64 4.777 5.015 6.135 7.105 8.01 8.925 10.105 11.19 11.565 11.345 10.7 9.705 8.81 8.895 9.91 10.935 12.17 13.04 13.355 13.18 12.75 12.19 12.35 13.115 14.01 14.34 14.485 14.525 14.395 13.93 12.02 9.63 6.06 6.635 5.965 4.928 4.957 4.972 5.965 7.77 7.99 4.909 4.435 4.563 4.718 4.906 6.345 7.505 8.55 10.065 11.09 11.855 12.565 13.21 13.86 14.35 14.63 14.915 15.3 15.635 15.835 15.895 15.83 15.74 15.54 15.42 15.355 15.29 15.06 14.945 14.87 15.24 15.84 16.255 16.775 17.485 17.99 18.035 17.74 17.385 17.275 16.82 15.19 13.745 13.65 14.885 16.975 17.885 17.47 16.79 15.325 13.8 12.565 10.76 8.245 6.775 7.895 9.72 11.305 12.105 11.53 9.81 8.63 8.925 9.615 10.245 11.225 12.31 13.065 14.11 15.675 16.56 16.34 15.44 14.585 13.545 13.415 13.095 13.585 14.53 14.775 14.675 13.205 10.735 9.93 9.795 8.935 7.62 7.18 8.735 10.82 12.815 14.365 14.7 13.975 12.545 11.57 11.17 10.31 9.6 9.365 9.505 9.865 10.255 10.36 10.03 9.83 10.035 10.48 10.77 11.29 12.94 14.56 15.335 15.47 15.495 15.66 16 16.835 17.77 18.77 19.99 21.67 22 20.79 19.52 18.29 17.91 18.02 17.71 17.735 18.49 19.245 19.94 22.23 25.49 28.66 29.62 27.48 26.24 28.5 32.03 34.92 37.84 -9999 -9999 -9999 -9999 -9999 -9999 -9999 -9999 -9999
-9999 -9999 -9999 -9999 -9999 -9999 -12.5 -9.4675 -9.0275 -8.645 -8.09 -8.4025 -8.97 -8.7 -8.2925 -7.9825 -7.7675 -7.47 -7.39 -7.6525 -7.6775 -7.49 -6.7575 -6.3075 -4.3725 -1.8425 -0.9425 -1.0925 -1.15 -1.0775 0.425 0.468 0.541 0.63 0.8 1.079 1.324 1.484 2.152 2.486 2.534 2.45 2.436 2.489 2.55 2.977 3.167 3.088 2.54 2.524 2.857 3.501 3.585 3.309 2.644 2.151 1.825 1.46 1.354 1.545 1.907 2.317 2.778 2.968 2.933 3.107 3.437 3.75 3.935 4.12 4.309 4.411 4.35 4.382 4.574 4.751 4.936 5.345 5.785 6.575 7.835 9.645 10.8 11.325 11.44 11.58 11.465 10.965 10.44 10.26 10.94 11.955 12.685 13.095 12.715 11.72 11.015 10.87 12.02 12.945 13.905 14.08 13.69 14.235 14.225 13.71 11.61 8.225 5.11 4.898 5.01 4.716 4.966 6.63 7.415 7.385 5.02 4.39 4.551 4.964 5.935 5.905 6.755 8.475 9.77 10.795 11.595 12.17 12.8 13.67 14.31 14.96 15.44 15.785 16.045 16.235 16.32 16.255 16.155 15.97 15.65 15.36 15.23 15.275 15.175 15.205 15.24 15.43 15.705 15.835 16.325 17.16 18.13 18.605 18.52 18.38 18.25 17.795 16.575 15.54 15.425 16.145 17.735 18.03 17.21 16.485 15.18 13.475 12.21 9.935 7.51 7.24 8.23 9.72 10.995 12.305 12.83 11.41 9.87 10.1 10.78 10.885 10.835 11.02 11.685 12.81 14.51 16.07 16.61 15.57 14.58 14.73 14.565 14.255 14.215 14.855 15.49 15.225 13.305 11.355 11.765 11.14 9.815 8.795 7.805 7.45 8.43 10.575 12.34 13.175 13.555 13.44 13.2 12.865 11.965 11.03 10.53 10.43 10.73 11.25 11.63 11.335 10.76 10.28 10.19 10.325 11.475 13.49 15.7 17.155 17.675 17.48 17.31 17.165 17.545 18.365 19.24 20.31 20.73 19.915 19.085 18.305 17.3 16.54 16.53 16.94 17.225 17.625 18.28 19.34 21.66 25.58 28.95 29.2 26.28 24.92 27.41 31.45 33.61 36.3 -9999 -9999 -9999 -9999 -9999 -9999 -9999 -9999 -9999
-9999 -9999 -9999 -9999 -9999 -9999 -12.5 -8.84 -8.2075 -7.715 -7.4875 -8.0375 -8.25 -8.085 -7.9825 -7.795 -7.41 -6.9225 -7.1625 -7.635 -7.6625 -7.495 -6.6275 -4.8075 -2.7725 -1.24 -0.95 -1.0975 -1.1875 -1.1025 0.425 0.475 0.558 0.72 0.926 1.181 1.384 1.519 2.085 2.225 2.633 2.697 2.661 2.774 2.613 2.714 3.255 2.601 1.876 2.389 3.213 3.432 3.372 3.103 2.286 1.795 1.504 1.339 1.386 1.678 2.15 2.547 2.935 3.223 3.271 3.359 3.501 3.73 3.96 4.134 4.266 4.128 4.211 4.494 4.701 4.855 5.01 5.78 6.595 7.075 7.95 9.455 10.345 10.745 11.135 11.715 11.895 11.79 11.49 11.345 11.89 12.615 12.89 12.705 11.865 10.225 9.43 10.89 12.02 12.89 13.875 14.245 13.105 11.26 10.435 11.14 10.42 8.01 5.435 4.584 4.6 4.89 6.47 7.41 7.155 5.18 4.408 4.389 4.872 6.515 7.83 8.22 7.97 8.215 9.335 10.355 11.175 11.915 12.835 13.88 14.45 15.065 15.685 16.095 16.21 16.38 16.32 16.14 16.075 15.88 15.475 14.985 14.635 14.855 14.965 15.065 15.305 15.425 15.365 15.23 15.825 16.89 18.085 18.875 18.92 18.86 18.705 18.49 18.03 17.6 17.585 17.74 18.225 17.33 15.81 14.86 14.185 12.725 11.025 8.775 7.86 8.115 8.445 9.915 11.26 12.53 13.42 12.375 10.98 10.94 11.88 12.495 11.99 11.955 12.135 12.215 14.2 16.065 16.835 16.205 15.49 15.69 15.985 15.83 15.385 15.515 15.72 14.715 12.855 12.56 12.885 11.695 10.91 10.24 9.525 8.305 7.64 8.89 10.54 11.505 12.335 13.225 13.79 14.045 13.605 12.625 11.895 11.54 11.64 12.36 12.78 12.41 11.705 11.18 10.915 10.805 11.025 12.385 14.225 15.92 17.965 18.515 18.48 18.35 18.57 19.16 19.73 19.975 19.495 18.72 17.915 16.945 16.19 16.035 16.69 17.665 18.16 18.29 18.195 18.585 19.83 23.24 26.34 25.61 23.62 23.58 25.92 29.52 31.08 33.52 36.22 -9999 -9999 -9999 -9999 -9999 -9999 -9999 -9999
-9999 -9999 -9999 -9999 -9999 -9999 -12.5 -8.8475 -8.36 -7.72 -7.1275 -7.33 -7.4 -7.6775 -7.71 -7.4425 -6.915 -6.75 -7.265 -7.605 -7.5425 -7.1775 -4.9275 -3.0175 -1.57 -1.0775 -1.145 -1.17 -1.0675 0.431 0.457 0.539 0.626 0.854 1.114 1.441 1.626 1.747 1.863 2.101 2.723 2.769 2.909 2.986 2.639 2.538 3.12 2.159 2.235 3.143 3.285 3.117 3.226 2.866 1.945 1.463 1.327 1.322 1.462 1.9 2.481 2.924 3.212 3.41 3.499 3.61 3.694 3.822 4.008 4.128 4.049 3.893 4.226 4.512 4.682 4.816 4.939 5.685 6.94 8.035 8.965 9.695 9.95 10.575 11.305 11.91 12.115 12.115 11.99 11.955 12.245 12.46 12.225 11.595 10.485 8.69 9.7 11.24 12.29 13.1 14 14.145 13.555 11.335 8.005 6.995 7.935 6.825 4.889 4.472 4.823 5.855 5.375 4.806 4.646 4.38 4.176 4.417 4.906 6.585 8.065 8.98 9.76 9.905 9.71 10.44 11.39 12.36 13.235 13.845 14.345 14.89 15.55 15.98 15.94 15.7 15.62 15.765 15.86 15.67 15.13 14.4 13.975 14.18 14.455 14.655 14.83 14.81 14.61 14.61 15.525 16.675 17.885 18.735 18.965 18.895 18.695 18.43 18.25 18.39 18.58 18.81 18.32 16.785 15.185 13.715 12.835 12.02 10.7 8.825 8.8 9.01 8.485 9.115 10.85 12.39 13.63 13.495 12.56 12.11 12.52 13.265 13.14 13.355 13.695 12.68 13.885 16.12 17.16 17.025 16.835 16.925 17.28 17.225 16.7 16.585 15.685 13.79 12.71 13.54 13.15 12.54 12.385 11.745 10.92 9.415 7.83 8.455 9.74 10.585 11.405 12.255 12.97 13.895 14.63 14.635 13.82 13.015 12.83 13.525 13.85 13.205 12.43 12.37 12.275 11.785 11.17 11.27 12.155 13.8 15.885 16.91 17.505 18.03 18.695 19.19 19.35 19.21 18.62 17.465 16.52 15.855 15.65 16.25 17.25 18.325 19.23 19.645 19.45 19.06 19.105 20.51 22.48 21.61 22.09 23.35 24.64 26.8 28.58 30.98 34.09 36.4 -9999 -9999 -9999 -9999 -9999 -9999 -9999
-9999 -9999 -9999 -9999 -9999 -9999 -12.5 -8.675 -8.54 -8.1375 -7.1575 -6.635 -7.08 -7.4575 -7.405 -7.1825 -6.61 -6.7675 -7.2875 -7.5175 -7.335 -6.2575 -3.9725 -2.085 -1.175 -1.1375 -1.22 -1.2125 -1.1425 0.458 0.502 0.577 0.74 0.952 1.227 1.559 1.711 1.656 1.794 2.289 2.724 3.05 3.164 3.338 2.932 3.368 3.969 3.227 2.901 3.344 3.192 3.28 3.122 2.257 1.453 1.262 1.288 1.363 1.65 2.211 2.793 3.174 3.409 3.544 3.634 3.721 3.797 3.926 4.03 3.902 3.649 3.717 3.991 4.204 4.363 4.558 4.797 5.445 7.095 8.765 9.87 10.475 10.705 11.17 11.72 12.09 12.085 11.955 11.715 11.385 11.695 11.765 11.2 10.22 9.31 7.67 10.19 12.095 12.915 13.025 13.5 13.615 12.48 10.35 7.49 4.975 4.883 4.866 4.484 4.467 4.982 4.787 4.286 4.086 4.105 4.178 4.329 4.579 4.795 5.365 7.51 9.01 9.89 10.6 10.92 11.085 11.65 12.48 13.04 13.605 13.915 14.425 15.05 15.36 15.27 14.785 14.63 15.185 15.555 15.405 14.73 13.75 13.215 13.455 13.815 13.99 14.06 13.89 13.78 14.425 15.47 16.605 17.57 18.1 18.43 18.535 18.25 17.985 17.89 18.11 18.595 19.095 18.585 17.13 15.54 13.945 12.52 11.38 10.325 9.085 9.555 10.02 9.48 9.19 9.855 11.175 12.865 14.015 14.025 13.795 13.83 14.1 14.26 14.855 15.185 13.74 13.475 15.535 17 17.7 18.055 18.28 18.54 18.535 18.135 17.455 15.68 13.83 13.475 14.32 14.06 13.335 12.425 11.415 10.435 9.375 8.165 8.535 9.605 10.32 10.955 11.655 12.33 13.305 14.585 15.685 15.82 15.125 14.375 14.855 14.91 13.83 13.325 13.64 13.535 13.145 12.225 11.305 11.28 11.95 12.875 13.985 15.19 16.15 16.955 17.875 17.81 17.77 17.43 16.18 15.235 15.17 15.99 17.015 17.71 18.485 19.55 20.52 20.73 19.97 19.665 19.885 20.72 20.87 22.2 24.44 25.68 25.92 27.35 29.68 32.39 35.18 -9999 -9999 -9999 -9999 -9999 -9999 -9999
-9999 -9999 -9999 -9999 -9999 -9999 -12.5 -7.6175 -7.945 -7.9625 -7.395 -6.1825 -6.6125 -7.1475 -7.0625 -6.7725 -6.4975 -6.9025 -7.325 -7.485 -6.7375 -4.765 -2.91 -1.4825 -1.14 -1.19 -1.13 -1.12 0.44 0.455 0.594 0.717 0.931 1.192 1.342 1.493 1.648 1.821 2.145 2.609 3.087 3.258 3.229 3.348 3.494 3.898 4.246 4.165 3.538 3.302 3.522 3.118 2.376 1.641 1.263 1.235 1.335 1.477 1.826 2.343 2.736 3.013 3.201 3.391 3.596 3.705 3.79 3.879 3.799 3.47 3.531 3.774 4.064 4.346 4.504 4.544 4.73 5.305 7.14 8.975 10.29 11 11.19 11.485 11.845 12.06 11.71 10.82 10.54 10.39 10.55 10.715 9.38 8.355 7.805 6.965 9.65 11.935 12.78 12.905 13.15 12.755 11.21 9.17 7.295 5.305 4.573 4.281 4.126 4.528 4.697 4.203 4.018 4.278 4.516 4.696 4.755 4.999 6.215 6.085 6.85 8.08 9.14 10.2 11.1 11.835 12.29 12.7 13.025 13.235 13.33 13.975 14.565 14.905 14.515 13.705 13.89 14.745 15.14 15.08 14.74 13.57 12.495 12.805 13.245 13.075 12.86 13.02 13.77 14.805 15.625 16.565 17.18 17.37 17.54 17.735 17.55 17.3 17.125 17.52 18.4 18.985 18.295 16.625 15 14.035 13.18 11.98 10.13 9.81 10.645 11.095 11.145 10.69 9.94 10.275 11.375 12.62 13.85 14.965 15.59 15.745 15.74 16.105 16.215 14.485 13.675 15.155 16.44 17.17 18.025 18.775 19.285 19.36 18.955 17.535 15.485 14.29 14.56 15.05 14.46 13.055 11.575 10.65 10.315 9.97 8.825 9.095 10.22 10.95 11.63 12.63 13.32 13.685 14.495 15.89 16.895 16.76 15.88 16.33 15.86 14.605 14.56 15.03 14.84 14.155 13.215 12.45 12.035 11.545 11.66 12.02 12.655 13.75 15.07 15.935 15.795 15.74 15.605 14.825 14.66 15.275 16.46 17.435 17.975 18.59 19.59 20.78 21.86 21.72 21.06 21.45 22.61 22.91 23.45 25.59 27.31 27.13 27.44 29.61 32.56 35.33 -9999 -9999 -9999 -9999 -9999 -9999 -9999
-9999 -9999 -9999 -9999 -9999 -9999 -12.5 -7.0125 -6.9075 -7.135 -6.8525 -5.855 -6.225 -6.5325 -6.685 -6.495 -6.6275 -7.1175 -7.2075 -7.0375 -5.775 -3.8375 -2.175 -1.395 -1.2825 -1.1675 -1.0975 -1.115 0.449 0.475 0.623 1.031 1.45 1.611 1.648 1.932 2.045 2.21 2.704 3.18 3.418 3.403 3.319 3.386 3.516 3.641 3.892 3.984 3.75 3.278 3.251 2.511 1.83 1.329 1.215 1.3 1.523 1.631 1.763 1.98 2.182 2.331 2.459 2.802 3.305 3.489 3.614 3.636 3.359 3.428 3.76 4.049 4.254 4.509 4.754 4.87 4.899 5.54 7.41 9.035 10.335 10.98 11.18 11.54 11.79 11.67 10.76 8.89 9.325 10.125 8.725 9.07 7.315 6.405 5.4 5.91 8.395 10.54 11.95 12.795 13.17 12.475 11.685 10.84 9.22 6.45 4.663 4.071 4.11 4.504 4.21 3.93 4.259 4.671 4.98 5.975 6.215 6.505 8.085 7.91 7.46 8.25 9.555 10.71 11.6 12.35 12.56 12.73 12.86 12.55 12.855 13.745 14.275 14.315 13.31 12.595 13.655 14.285 14.355 14.595 14.7 13.695 12.26 11.735 12.17 11.915 12.15 13.305 14.49 15.365 16.005 16.475 16.475 16.295 16.415 16.81 16.885 16.58 16.29 16.96 18.11 18.37 17.44 15.83 14.27 13.34 12.835 11.495 10.17 11.06 11.815 12.43 12.805 12.3 11.4 10.915 11.38 11.815 12.91 14.77 16.355 17.1 17.395 17.445 17.18 15.31 14.145 14.61 15.4 15.71 16.355 17.49 18.87 19.645 19.305 17.715 15.92 15.325 15.685 15.605 14.415 12.695 11.725 11.36 10.865 10.265 9.12 9.425 10.43 11.285 12.25 13.52 14.635 15.34 15.71 16.275 17.21 17.745 17.3 17.705 16.76 15.555 15.945 16.245 15.505 14.23 13.945 14.04 13.465 12.41 12.65 13.02 12.545 12.38 12.95 13.43 13.52 13.6 13.76 13.83 14.375 15.305 16.32 17.21 17.99 18.8 19.635 20.92 22.52 23.13 22.8 23.19 24.67 25.18 24.89 26.34 28.34 28.54 28.05 29.71 32.78 35.89 -9999 -9999 -9999 -9999 -9999 -9999 -9999
-9999 -9999 -9999 -9999 -9999 -9999 -12.5 -7.445 -6.995 -6.48 -6.015 -5.5975 -5.265 -5.315 -5.8125 -6.6225 -6.93 -6.985 -5.735 -4.5375 -4.32 -3.0725 -1.75 -1.3725 -1.2925 -1.1375 -1.11 0.446 0.474 0.594 0.957 1.524 2.014 2.084 1.982 2.197 2.224 2.169 2.7 3.222 3.385 3.359 3.615 3.87 3.904 3.65 3.559 3.563 3.366 3.057 2.837 2.166 1.521 1.2 1.231 1.532 1.82 1.998 2.202 2.343 2.449 2.409 2.471 2.541 2.68 2.916 3.151 3.168 3.287 3.657 3.989 4.299 4.519 4.713 4.913 5.305 5.815 6.365 7.525 8.6 9.505 10.305 10.895 11.405 11.4 10.935 9.805 7.69 8.445 10.175 8 6.39 5.32 4.818 5 7.33 8.535 10.415 11.775 12.295 12.235 11.805 11.245 8.975 6.665 4.902 4.454 3.962 4.104 4.189 3.862 4.088 4.63 5.195 6.745 7.825 8.33 8.21 9.43 9.475 8.955 9.46 10.55 11.44 12.01 12.325 12.35 12.17 11.985 11.93 12.74 13.71 14.215 13.675 12.12 12.105 13.18 13.52 13.46 14.07 14.535 13.855 12.29 10.915 10.98 11.65 12.705 13.9 15.105 15.765 16.205 16.355 15.77 15.17 15.43 16.1 16.405 16.15 15.67 16.18 17.2 17.615 17.095 15.59 14.225 13.165 12.22 11.19 10.56 11.645 12.655 13.52 14.09 13.6 12.435 11.84 12.48 12.755 12.87 14.155 15.615 16.91 17.97 18.49 17.995 15.895 15.32 15.75 16.375 17.02 17.3 17.145 18.005 19.445 19.835 18.53 16.77 16.53 16.57 15.835 14.265 12.81 12.88 12.505 10.96 9.66 8.905 9.64 10.48 11.33 12.475 13.845 15.175 16.64 17.695 18.205 18.495 18.91 18.95 18.895 17.805 17.055 17.45 16.915 15.465 14.76 15.405 15.595 14.62 13.4 13.595 14.46 14.12 13.54 13.33 13.185 13.635 14.05 14.31 14.255 14.345 15.35 16.69 17.85 18.62 19.475 20.57 22.2 23.69 24.4 24.48 25 26.75 27.59 26.68 27.45 29.27 29.65 28.94 30.04 32.78 36.08 -9999 -9999 -9999 -9999 -9999 -9999 -9999
-9999 -9999 -9999 -9999 -9999 -9999 -12.5 -7.4325 -7.2325 -7.11 -6.9 -6.7475 -6.405 -5.7825 -4.945 -5.55 -6.59 -5.7475 -4.1025 -3.305 -3.2775 -2.3925 -1.5775 -1.2825 -1.18 -1.1275 -1.125 0.481 0.55 0.853 1.372 1.977 2.27 2.254 2.236 2.382 2.424 2.328 2.286 2.826 3.349 3.847 4.077 4.017 3.912 3.661 3.418 3.284 3.232 3.119 2.749 2.018 1.363 1.175 1.361 1.753 2.101 2.407 2.672 2.81 2.907 2.92 3.008 3.143 3.295 3.288 3.316 3.36 3.441 3.693 4.073 4.444 4.684 4.86 5.1 5.835 6.525 7.28 8.06 8.875 9.515 10.215 10.645 10.95 11.035 10.34 8.345 5.975 6.145 8.28 7.01 4.765 4.637 4.776 6.66 9.41 10.17 10.75 11.285 11.115 10.76 9.44 9.85 7.41 4.856 4.539 4.157 3.758 3.818 3.777 3.794 4.182 4.834 6.29 7.87 9.035 9.66 9.87 10.545 10.695 10.33 10.505 11.09 11.595 11.91 11.985 11.705 11.195 11.125 11.755 12.895 13.73 13.965 12.92 11.28 11.835 12.6 12.58 12.755 13.755 14.28 13.86 12.1 10.38 10.635 12.37 13.495 14.51 15.585 16.04 16.015 15.565 14.84 14.29 14.87 15.82 16.12 15.61 15.135 15.335 16.275 17 17.015 16.045 15.055 13.925 12.58 11.78 11.07 12.035 13.17 14.04 14.9 14.785 13.42 12.67 13.05 13.54 13.485 14.19 14.74 16.495 17.85 19.04 18.74 16.495 16.71 17.05 17.45 18.485 18.91 18.4 17.99 19.285 20.14 19.1 17.755 17.725 17.155 15.845 14.075 13.59 14.36 13.285 11.01 9.525 9.135 9.935 10.5 11.26 12.305 13.62 14.825 16.025 17.635 19.07 19.81 20.56 20.72 20.29 19.5 18.93 18.485 17.165 15.995 16.045 17.05 17.11 15.605 14.28 14.33 15.33 15.7 15.355 14.77 14.34 15.045 15.835 16.01 15.3 14.675 15.035 16.53 17.825 18.82 19.86 21.63 23.26 24.53 25.28 25.96 26.9 28.65 29.61 28.86 29.06 30.52 30.73 30.26 30.58 32.99 36.08 38.56 -9999 -9999 -9999 -9999 -9999 -9999
-9999 -9999 -9999 -9999 -9999 -9999 -12.5 -7.16 -7.05 -7.2275 -7.2325 -7.29 -7.2925 -6.29 -5.2125 -4.6175 -4.3075 -3.77 -3.07 -2.565 -2.5075 -2.02 -1.5625 -1.34 -1.28 -1.1775 0.458 0.511 0.828 1.397 1.74 2.192 2.39 2.409 2.441 2.558 2.718 2.846 2.832 3.323 3.902 4.117 3.945 3.591 3.352 3.438 3.012 2.989 2.95 2.948 2.698 2.073 1.288 1.198 1.489 1.918 2.32 2.662 2.942 3.116 3.227 3.312 3.399 3.525 3.643 3.695 3.775 3.768 3.741 3.943 4.212 4.532 4.762 4.905 5.16 5.77 6.46 7.48 8.6 9.475 10.055 9.975 8.745 8.39 9.9 10.125 8.84 6.905 4.867 4.894 4.898 4.384 4.638 6.1 8.055 9.06 9.8 10.02 10.135 10.48 9.765 6.505 5.83 4.773 4.369 4.242 4.02 3.632 3.652 3.8 3.972 4.178 4.587 4.959 6.895 8.495 9.785 10.925 11.395 11.6 11.415 11.175 11.155 11.32 11.195 10.87 10.35 10.42 11.21 12.21 13.085 13.57 13.485 12.385 10.62 11.33 11.84 11.565 12.22 13.49 13.95 13.6 11.905 9.725 10.52 12.565 13.625 14.315 15.125 15.31 15.12 14.1 13.46 13.95 14.855 15.55 15.465 14.905 14.4 14.77 15.675 16.435 16.85 16.595 15.76 14.24 12.975 12.205 11.78 12.585 13.465 14.52 15.375 15.435 14.03 13.635 14.04 14.455 14.38 15.445 15.955 16.875 19.145 20.48 19.42 17.29 18.025 18.55 18.46 19.555 20.26 19.555 18.62 19.37 20.75 19.855 18.855 18.15 17.1 15.81 14.68 15.145 15.555 14.33 11.865 10.04 9.49 9.895 10.36 10.975 11.82 12.65 13.235 14.1 15.865 17.595 19.065 20.27 21.18 21.99 21.85 20.63 19.19 17.995 17.18 17.415 18.38 17.985 16.25 15.055 15.11 16.13 16.865 16.76 15.82 15.355 16.08 16.95 17.07 16.2 15.31 15.07 15.855 17.34 18.545 19.655 21.11 22.74 23.81 24.41 25.56 27.39 29.45 30.64 30.77 31.2 31.97 31.97 31.69 31.7 33.12 35.82 38.51 -9999 -9999 -9999 -9999 -9999 -9999
-9999 -9999 -9999 -9999 -9999 -9999 -12.5 -7.0275 -6.9675 -7.0625 -7.0325 -7.15 -7.28 -6.35 -5.63 -4.73 -3.67 -3.8575 -4.045 -2.7875 -2.155 -1.845 -1.53 -1.2975 -1.2675 -1.1925 0.459 0.547 1.26 1.944 2.18 2.318 2.433 2.517 2.606 2.734 2.87 2.947 3.045 3.396 3.965 3.908 3.535 3.162 2.95 3.071 2.749 2.95 2.85 2.827 2.603 1.898 1.217 1.177 1.545 1.971 2.377 2.74 3.056 3.276 3.416 3.526 3.647 3.775 3.9 4.008 4.094 4.073 4.057 4.234 4.438 4.627 4.756 4.853 4.967 5.515 6.31 7.395 8.485 9.25 9.56 9.34 7.28 6.18 9.06 10.425 10.325 8.31 4.913 4.438 4.345 4.174 4.751 6.915 7.84 7.74 9.105 9.275 9.2 9.99 8.655 4.872 4.34 4.023 3.76 3.65 3.569 3.593 3.904 4.302 4.539 4.634 4.686 4.959 6.29 7.925 10.28 11.545 11.92 12 11.575 11.135 10.785 10.625 10.23 9.67 9.59 10.755 12.1 12.725 13.115 13.195 12.79 11.96 10.225 10.695 11.355 10.82 12.185 13.275 13.55 13.04 11.095 9.035 10.625 12.44 12.925 12.995 13.525 13.775 13.845 12.865 13.065 14.485 15.235 15.3 15.035 14.175 13.985 14.525 15.17 16.17 16.855 16.63 15.38 14.23 13.29 12.37 12.58 13.565 13.765 14.78 16.085 16.065 14.83 15.635 16 16.2 15.525 16.45 17.755 17.455 19.02 21.57 19.98 17.905 18.64 19.72 19.445 20.07 21.89 21.31 19.47 19.76 21.59 20.95 19.08 17.69 16.555 15.835 16.07 16.585 16.655 15.485 13.07 11.08 10.02 9.96 10.115 10.365 10.755 11.175 11.475 12.315 13.66 15.165 17.015 18.09 19.02 21.02 22.72 22.16 20.51 19.465 18.915 18.93 19.185 18.47 16.77 15.67 15.87 16.88 17.795 17.735 16.685 16.46 17.2 17.895 17.74 16.64 15.79 15.675 15.7 16.705 18.09 19.225 20 21.11 22 22.93 24.63 26.74 28.23 29.5 30.72 31.84 32.71 33.13 33.34 33.53 34.3 36.2 38.92 -9999 -9999 -9999 -9999 -9999 -9999
-9999 -9999 -9999 -9999 -9999 -9999 -12.5 -6.9475 -6.865 -6.75 -6.5225 -6.76 -6.97 -6.325 -5.8075 -4.9475 -4.83 -5.465 -4.615 -2.7075 -1.9875 -1.785 -1.465 -1.29 -1.2475 0.482 0.467 0.568 1.556 2.208 2.319 2.397 2.489 2.606 2.723 2.85 2.948 2.997 3.075 3.221 3.615 3.517 3.078 2.694 2.246 2.076 2.206 2.458 2.408 2.513 2.506 1.736 1.191 1.185 1.545 1.922 2.31 2.732 3.047 3.248 3.449 3.644 3.806 3.956 4.092 4.189 4.253 4.281 4.293 4.312 4.445 4.573 4.635 4.742 4.904 5.3 6.15 7.09 7.86 8.31 8.505 8.6 6.195 4.788 6.135 8.305 9.255 7.255 4.726 4.217 3.937 3.969 4.367 4.802 5.23 6.405 7.755 8.31 9.14 9.625 8.08 4.766 4.004 3.58 3.43 3.555 3.695 3.768 4.174 4.735 5.31 6.255 6.135 6.715 8.435 9.44 11.33 12.11 12.3 12.055 11.49 11.08 10.665 9.875 9.46 8.935 9.92 11.36 12.3 12.635 12.655 12.41 11.84 11.175 9.465 10.065 10.785 11.12 12.355 12.85 12.86 12.255 10.23 8.41 10.2 11.615 11.125 10.555 10.905 11.29 11.355 11.93 13.68 15.065 15.34 15.21 14.715 13.605 14.34 15.275 15.8 16.525 17.1 16.585 15.53 15.095 14.445 13.185 12.97 14.37 14.85 15.28 16.665 17.14 16.43 17.825 18.475 18.175 17.06 17.315 18.545 18.885 19.07 21.02 20.47 18.555 18.87 20.95 21.59 21.95 23.55 23.09 20.6 20.64 22.44 21.52 19.125 17.545 16.65 16.81 17.185 17.375 17.37 16.76 14.91 12.6 10.99 10.57 10.71 10.605 10.63 10.965 11.075 11.245 11.775 13.085 14.71 15.925 17.67 19.545 21.52 21.28 20.09 19.48 19.105 19.095 19.4 18.935 17.515 16.53 16.76 17.755 18.44 18.48 17.555 17.635 18.52 18.72 17.85 16.745 16.43 16.74 16.455 16.435 17.455 18.535 19.09 19.495 20.36 22.11 23.75 24.89 25.76 26.57 28.27 30.29 32.3 33.68 34.25 34.8 35.56 36.86 39.23 -9999 -9999 -9999 -9999 -9999 -9999
-9999 -9999 -9999 -9999 -9999 -9999 -12.5 -7.035 -7.0125 -7.01 -6.495 -6.16 -6.6275 -6.405 -5.945 -5.5775 -5.745 -5.2175 -3.3975 -2.285 -1.8925 -1.7525 -1.56 -1.4025 -1.2525 0.476 0.466 0.504 1.326 2.142 2.324 2.445 2.547 2.652 2.75 2.861 2.967 2.965 3.002 3.071 3.165 3.022 2.553 1.99 1.411 1.151 1.207 1.53 1.877 2.219 2.275 1.515 1.123 1.264 1.587 1.874 2.222 2.623 2.955 3.193 3.435 3.661 3.846 4.023 4.146 4.201 4.269 4.333 4.35 4.321 4.346 4.399 4.48 4.653 4.833 4.971 5.5 6.095 6.795 7.4 7.87 7.96 5.29 4.381 4.516 4.849 5.91 5.485 4.61 3.958 3.684 4.015 4.569 4.926 6.365 7.615 8.02 8.11 8.755 8.98 7.675 4.836 3.913 3.387 3.513 3.941 4.165 4.109 4.356 4.974 6.78 7.91 8.135 8.425 10.065 11.04 11.92 12.25 12.165 11.63 11.01 11.07 10.76 9.77 8.315 8.875 10.34 11.295 11.6 11.615 11.455 10.85 10.52 10.19 8.36 8.775 10.07 11.58 12.26 12.095 11.38 10.89 9.655 7.445 9.225 9.13 7.845 7.645 7.99 8.355 10.185 12.48 14.06 14.71 14.275 14.28 13.69 12.94 14.01 15.49 16.5 17.13 17.61 17.13 16.72 16.64 15.87 14.365 13.825 14.645 15.665 16.425 17.145 18.065 18.305 19.22 20 19.12 18.6 18.87 19.505 21.2 20.8 22.08 21.43 19.455 19.185 19.955 22.29 24.14 25.35 24.69 22.18 22.18 23.32 21.69 19.455 18.205 17.525 17.635 17.78 17.575 17.215 16.815 15.64 13.515 11.605 11.185 11.495 11.2 11.17 11.91 12.33 12.12 11.69 11.96 13.36 15.355 17.1 18.505 19.325 19 18.775 18.65 18.395 18.54 19.16 19.385 18.54 17.765 17.73 18.415 19.285 19.395 18.645 19.105 19.55 18.995 17.97 17.035 17.28 17.8 17.705 17.05 16.85 17.29 17.955 18.755 19.57 20.82 22.05 22.67 23.86 25.31 27.68 30.34 32.07 32.96 33.39 34.32 35.66 37.53 39.71 -9999 -9999 -9999 -9999 -9999 -9999
-9999 -9999 -9999 -9999 -9999 -9999 -12.5 -7.295 -7.2125 -7.0775 -6.59 -5.98 -6.3525 -6.19 -5.895 -5.69 -4.8775 -3.55 -2.505 -2.08 -1.86 -1.68 -1.475 -1.405 0.507 0.467 0.457 0.506 1.538 2.315 2.416 2.501 2.583 2.656 2.73 2.82 2.886 2.879 2.87 2.86 2.709 2.537 1.987 1.297 0.973 0.945 0.977 1.049 1.319 1.731 1.663 1.164 1.117 1.332 1.625 1.926 2.251 2.615 2.985 3.242 3.427 3.582 3.759 3.937 4.033 4.112 4.217 4.286 4.235 4.152 4.218 4.318 4.443 4.605 4.764 4.884 4.997 5.795 6.49 6.475 6.425 5.755 4.905 4.278 3.99 4.274 4.524 4.439 4.148 3.677 3.862 4.399 4.887 6.3 7.485 7.935 6.82 5.825 6.74 6.7 5.985 4.608 3.7 3.326 3.797 4.311 4.543 4.535 4.5 4.936 7.135 8.32 8.615 9.47 10.685 11.355 11.75 11.89 11.55 10.67 9.95 10.55 9.905 8.875 7.665 8.84 9.81 10.4 10.24 9.85 9.53 8.85 9.125 8.18 7.38 9.175 10.63 11.15 11.1 10.245 8.135 7.44 6.805 5.995 6.675 6.69 7.46 8.465 8.95 8.525 8.785 10.69 12.505 13.22 12.785 12.71 12.41 12.215 13.25 14.64 15.84 17.08 17.925 18.045 18.02 17.87 17.015 15.74 15.535 15.6 16.445 17.28 18.03 18.96 19.78 21 22.06 20.97 21.53 21.45 21.38 23.19 23.52 24.2 23.58 21.63 21.29 21.11 22.62 24.91 26.76 25.9 23.92 24.37 24.52 22.59 20.35 18.99 17.955 17.465 17.055 16.255 15.37 14.7 13.805 12.735 11.955 11.87 12.055 11.71 11.68 12.47 13.44 13.645 12.855 12.025 12.75 14.35 15.68 16.975 17.66 17.335 17.185 17.515 17.76 18.32 19.22 19.905 19.715 19.13 19.245 19.43 20.48 21.15 20.21 20.87 19.99 18.81 17.83 17.555 18.22 18.89 19.185 18.815 18.085 17.51 17.57 18.085 18.795 19.72 20.57 21.73 23.72 25.62 27.84 29.96 30.53 30.84 31.88 33.33 35.11 37.41 40 -9999 -9999 -9999 -9999 -9999 -9999
-9999 -9999 -9999 -9999 -9999 -9999 -12.5 -7.4625 -7.3375 -7.04 -6.5675 -6.3225 -6.555 -6.4275 -6.23 -5.5725 -4.0775 -2.8 -2.245 -1.9675 -1.83 -1.7 -1.55 -1.425 0.52 0.472 0.442 0.53 1.569 2.4 2.473 2.541 2.601 2.626 2.646 2.67 2.662 2.645 2.575 2.356 2.113 2.026 1.45 0.997 0.937 0.899 0.921 0.976 0.984 1.069 1.036 1.081 1.246 1.44 1.719 1.99 2.318 2.678 2.959 3.127 3.236 3.445 3.659 3.762 3.837 4.021 4.173 4.206 4.08 4.08 4.268 4.42 4.556 4.688 4.823 4.893 4.978 4.934 4.669 4.209 4.154 4.143 4.381 4.205 3.697 3.702 3.787 3.639 3.514 3.747 4.333 4.727 5.05 6.21 6.8 6.525 4.833 4.371 4.453 4.457 4.558 4.319 3.533 3.281 3.807 4.357 4.663 4.834 4.887 4.943 6.115 7.425 8.24 9.33 10.185 10.815 11.24 11.1 10.55 9.47 9.165 9.545 8.32 7.345 7.505 8.745 9.29 9.065 8.25 7.485 7.34 7.125 7.03 6.29 8.28 9.855 9.41 8.365 7.98 7.085 5.365 5.59 5.89 6.24 6.635 7.19 9.19 11.015 11.825 11.335 9.775 9.24 9.625 10.465 10.945 11.19 11.42 11.91 12.725 13.715 14.68 15.865 16.925 17.755 18.25 18.045 17.445 17.035 17.13 17.33 17.95 18.5 19.095 20.02 21.54 22.84 23.49 23.33 23.88 23.97 23.86 24.74 25.56 26.11 25.68 24.56 24.03 23.55 24.77 26.28 27.55 27.37 26.57 26.54 25.83 23.58 20.09 18.735 18.105 17.805 17.485 16.92 15.635 14.21 13.73 13.26 13.005 13.025 12.71 12.215 12.21 13.08 14.27 14.985 14.615 13.11 12.385 13.345 14.79 15.695 15.8 15.955 16.65 17.44 18.14 18.88 19.73 20.94 21.49 20.79 21.09 21.55 22.47 23.81 23.56 22.86 20.4 18.775 18.21 18.47 19.04 19.96 21.55 21.31 19.775 18.76 18.67 18.785 18.59 19.08 19.685 20.71 22.18 24.18 26.79 28.27 28.3 29.13 31.21 33.05 34.28 36.79 -9999 -9999 -9999 -9999 -9999 -9999 -9999
-9999 -9999 -9999 -9999 -9999 -9999 -12.5 -7.47 -7.335 -7.0225 -6.735 -6.735 -6.79 -6.655 -6.295 -4.785 -3.055 -2.37 -2.215 -2.005 -1.7975 -1.69 -1.59 0.573 0.509 0.489 0.472 0.511 1.171 2.032 2.318 2.477 2.516 2.474 2.388 2.388 2.336 2.284 2.181 2.081 1.913 1.59 1.041 0.902 0.919 0.999 1.117 1.03 0.979 0.987 0.989 1.087 1.319 1.593 1.997 2.258 2.423 2.643 2.955 3.141 3.291 3.441 3.565 3.666 3.831 4.056 4.146 4.082 3.929 4.087 4.305 4.461 4.588 4.71 4.819 4.858 4.577 3.752 3.308 3.168 3.263 3.501 3.848 3.92 3.509 3.168 3.133 3.254 3.627 4.03 4.312 4.463 4.65 4.692 4.661 4.52 4.088 3.645 3.639 3.765 4.025 4.033 3.377 3.249 3.682 4.161 4.583 4.922 6.035 6.835 6.825 7.125 7.805 8.51 9.47 10.465 10.82 10.485 9.225 7.6 7.715 7.3 6.145 7.265 8.185 8.685 9.085 8.095 5.87 4.942 4.924 4.937 4.922 6.06 7.855 7.645 5.865 4.997 4.961 4.959 5.545 7.39 8.385 8.9 9.23 8.915 10.2 12.36 13.44 13.18 12.345 11.35 10.67 9.86 10.05 10.985 11.74 12.33 13.23 14.14 15.07 16.075 17.04 17.78 18.31 18.4 18.255 17.945 18.385 18.785 19.2 19.64 19.865 20.52 21.45 22.48 22.68 23.02 23.72 23.99 23.98 24.84 25.9 26.24 25.95 26.03 26.12 26.01 26.93 27.92 28.57 28.82 28.62 28.11 26.02 22.25 19.925 19.9 19.425 19.005 18.445 17.455 15.825 15.145 15.18 14.63 14.42 14.15 13.1 12.53 12.715 13.65 14.99 16.34 16.325 14.47 12.92 12.93 13.64 14.175 14.485 15.635 16.935 17.9 18.81 19.645 20.54 21.46 22.2 22.63 23.03 24.38 25.31 26.14 25.76 23.74 20.63 18.99 18.845 19.6 19.985 21.17 23.47 23.53 21.34 19.815 19.955 20.34 19.555 19.655 20.43 21.25 22.07 23.1 25.23 26.43 27.07 29.09 31.23 33.47 35.24 37.42 -9999 -9999 -9999 -9999 -9999 -9999 -9999
-9999 -9999 -9999 -9999 -9999 -9999 -12.5 -7.43 -7.2025 -6.96 -6.935 -6.9575 -6.9175 -6.23 -5.26 -3.51 -2.54 -2.2875 -2.195 -2.01 -1.725 -1.6625 0.632 0.582 0.538 0.535 0.539 0.543 0.753 1.321 1.83 2.133 2.238 2.185 2.088 2.285 2.161 2.087 2.009 1.931 1.768 1.205 0.842 0.837 1.042 1.386 1.607 1.524 1.254 1.117 1.122 1.327 1.523 1.648 2.135 2.607 2.808 2.913 3.072 3.285 3.428 3.517 3.556 3.677 3.878 4.024 4.001 3.868 3.891 4.133 4.323 4.45 4.527 4.542 4.623 4.633 3.865 2.867 2.508 2.506 2.686 2.959 3.233 3.359 3.182 2.831 2.913 3.25 3.408 3.433 3.525 3.643 3.833 3.744 3.556 3.476 3.284 3.112 3.173 3.32 3.525 3.519 3.188 3.261 3.605 4.041 4.483 4.883 6.04 7.15 7.04 7.455 8.34 9.035 9.62 10.35 10.63 10.095 8.465 6.32 5.095 4.999 6.445 7.925 8.625 8.94 8.29 6.22 4.707 4.515 4.52 4.57 4.625 4.841 4.966 4.858 4.875 5.64 6.08 6.19 6.535 8.87 10.305 11.025 11.5 11.07 11.265 12.73 14.105 14.24 13.865 13.25 12.195 10.585 10.475 11.73 12.7 13.24 14.01 15.025 15.97 16.79 17.435 17.915 18.18 18.3 18.18 17.885 18.205 18.475 18.955 19.435 19.605 19.745 20.08 20.84 21.35 22.07 22.88 23.3 23.29 23.7 24.55 24.49 24.71 25.96 26.81 27.42 28.1 28.38 29 29.75 29.88 29.04 26.25 23.28 23.07 23.13 21.26 19.64 18.4 17.135 16.58 16.37 16.07 15.72 15.465 14.73 13.31 12.78 13.385 14.72 16.07 17.5 17.68 15.75 13.955 13.445 13.41 13.72 14.16 15.05 16.175 17.365 18.495 19.36 19.85 20.3 21.36 23.19 24.47 25.89 27.28 27.65 26.65 23.95 20.82 19.4 19.82 21.69 22.84 23.46 25 25.07 22.94 22.23 22.51 22.19 20.37 20.38 21.82 23.07 23.84 23.83 24.25 25.35 27.38 29.63 31.88 34.36 37.25 -9999 -9999 -9999 -9999 -9999 -9999 -9999 -9999
-9999 -9999 -9999 -9999 -9999 -9999 -12.5 -7.3525 -7.1325 -6.93 -6.8825 -6.8925 -6.6025 -5.38 -4.005 -2.785 -2.355 -2.32 -2.185 -1.945 -1.6775 -1.6575 0.617 0.583 0.585 0.586 0.607 0.597 0.622 0.818 1.198 1.543 1.698 1.678 1.582 1.841 1.815 1.672 1.663 1.714 1.478 0.924 0.796 0.889 1.283 1.721 1.928 1.96 1.824 1.682 1.696 1.885 1.954 1.808 1.894 2.239 2.398 2.516 2.663 2.902 3.171 3.313 3.372 3.501 3.678 3.712 3.691 3.805 4.041 4.225 4.304 4.295 4.25 4.146 4.349 4.149 3.296 2.425 2.225 2.253 2.326 2.449 2.589 2.703 2.705 2.58 2.606 2.656 2.643 2.694 2.806 2.991 3.099 3 2.868 2.835 2.812 2.811 2.878 2.964 3.061 3.041 3.13 3.377 3.657 4.014 4.407 4.766 5.07 5.985 6.52 7.7 8.63 9.335 9.965 10.355 10.295 9.47 7.695 4.975 4.688 5.165 7.03 8.28 8.92 8.32 5.56 4.578 4.475 4.677 4.742 4.698 4.679 4.639 4.665 4.78 6.295 8.655 9.185 9.215 8.2 8.725 10.335 11.315 12 12.52 12.7 13.755 14.78 15.005 14.74 14.095 12.72 10.94 11.1 12.61 13.555 14.175 14.735 15.535 16.17 16.73 16.73 17.2 17.705 17.67 17.375 17.13 17.335 17.67 18.125 18.52 18.91 19.36 19.84 20.39 20.93 21.42 21.66 21.9 21.9 21.37 21.72 22.67 24.43 26.1 27.15 27.48 27.42 27.25 28.26 29.54 30.04 29.87 28.21 27.07 26.82 25.58 23.38 20.68 18.62 17.915 17.985 17.115 16.575 16.23 15.62 14.49 13.21 13.185 14.29 15.955 17.555 18.57 18.285 16.4 15.025 14.465 14.49 14.305 14.335 14.725 15.275 16.22 17.195 18.14 19.1 19.88 21.25 23.01 24.7 25.96 27.29 28.12 27.35 25.08 21.94 20.29 22.23 25.04 27.25 27.55 27.44 27.38 26.01 25.39 24.61 23.1 21.32 21.37 22.58 24.21 25.61 25.87 25.54 26.23 28.54 31.39 34.09 36.49 39.3 -9999 -9999 -9999 -9999 -9999 -9999 -9999 -9999
-9999 -9999 -9999 -9999 -9999 -9999 -12.5 -7.15 -7.135 -6.795 -6.6 -6.69 -5.745 -4.44 -3.39 -2.635 -2.4 -2.3375 -2.185 -1.93 -1.6325 0.64 0.608 0.584 0.598 0.747 0.899 0.708 0.624 0.615 0.725 0.884 0.928 0.896 0.876 0.984 1.084 1.147 1.205 1.194 1.004 0.819 0.831 1.073 1.482 1.859 2.098 2.19 2.254 2.272 2.3 2.374 2.404 2.292 2.172 2.137 2.297 2.8 3.022 2.943 2.978 3.07 3.16 3.273 3.401 3.565 3.77 4.024 4.197 4.255 4.218 4 3.812 3.637 3.837 3.613 2.816 2.225 2.283 2.454 2.439 2.392 2.403 2.429 2.485 2.495 2.541 2.628 2.695 2.693 2.636 2.649 2.675 2.738 2.876 2.986 3.039 3.08 3.024 2.933 3.061 3.157 3.415 3.715 3.976 4.085 4.254 4.511 4.844 5.985 7.255 8.765 9.515 9.975 10.315 10.365 9.845 8.86 7.315 4.81 4.656 6.33 8.005 8.305 7.41 5.37 4.557 4.457 4.814 6.105 7.025 6.77 6.415 5.475 5.175 4.945 7.28 10.28 11.185 11.115 9.97 9.145 10.22 10.935 12.055 13.315 13.81 14.49 15.525 15.58 15.06 14.075 12.73 11.285 11.46 12.925 14.05 14.39 14.845 15.48 15.625 15.735 15.82 16.54 17.195 16.765 16.36 16.61 17.41 18.025 18.525 18.975 19.385 19.63 20.16 20.59 20.25 19.87 19.425 19.295 19.52 19.735 20.98 23.03 25.11 26.72 27.21 26.49 25.36 25.26 26.81 28.51 29.44 30.11 30.34 29.31 28.1 26.48 24.35 21.16 19.22 19.435 19.25 18.07 16.99 16.065 15.065 14.16 13.555 13.76 15.09 16.795 18.44 19.48 19.03 17.485 16.325 15.805 15.76 15.055 15.085 15.44 15.225 15.49 16.675 18.095 19.4 20.72 21.8 22.58 23.16 23.73 25.61 27.26 27.47 25.69 22.82 21.44 23.94 27.27 30.17 30.53 30.27 30.01 28.59 26.85 25.11 23.48 22.58 23.9 25.19 26.08 27.63 28.13 27.72 27.99 29.25 32.62 36.3 38.18 -9999 -9999 -9999 -9999 -9999 -9999 -9999 -9999 -9999
-9999 -9999 -9999 -9999 -9999 -9999 -12.5 -6.845 -6.7625 -6.025 -5.2175 -5.35 -4.61 -3.76 -3.0975 -2.5675 -2.4075 -2.3275 -2.21 -1.975 0.652 0.627 0.61 0.598 0.72 1.209 1.247 0.995 0.746 0.657 0.637 0.636 0.648 0.678 0.677 0.723 0.759 0.752 0.761 0.75 0.753 0.812 0.967 1.281 1.602 1.877 2.137 2.355 2.58 2.707 2.745 2.775 2.831 2.895 2.88 2.777 2.669 2.96 3.161 3.245 3.296 3.333 3.404 3.535 3.67 3.83 4.006 4.169 4.231 4.173 3.924 3.533 3.285 3.107 3.149 3.014 2.422 2.213 2.593 2.974 3.035 2.783 2.67 2.736 2.787 2.884 3.03 3.117 3.059 3.073 2.992 2.974 2.959 3.031 3.24 3.476 3.572 3.468 3.119 3.083 3.39 3.633 3.908 4.165 4.396 4.473 4.528 4.727 5.275 7.35 8.53 9.33 10.04 10.49 10.635 10.39 9.195 7.025 5.03 4.517 4.428 5.205 6.345 5.25 4.684 4.41 4.385 4.578 5.555 7.78 8.815 8.99 8.915 8.295 7.665 6.395 6.85 9.635 11.37 11.915 11.32 10.25 10.935 11.6 12.505 13.715 14.66 15.435 16.115 15.94 15.075 13.87 12.64 11.96 11.715 12.315 13.11 13.33 13.915 14.595 14.485 14.78 15.22 15.765 16.13 16.14 16.25 16.59 17.36 18.185 18.925 19.56 19.865 19.925 20.15 19.83 19.285 18.59 18 17.9 18.715 19.775 21.67 23.75 25.78 26.65 25.73 23.94 23.24 24.24 25.85 27.34 28.28 29.76 30.45 28.77 26.41 25.11 23.76 21.49 21.16 21.51 19.975 18.53 17.105 15.97 14.93 14.655 14.67 14.51 15.26 16.8 18.69 20.3 20.18 18.59 17.52 17.16 16.375 15.62 16.16 16.765 16.3 15.555 16.555 18.235 19.505 20.73 21.23 21 20.77 21.53 23.42 25.88 27.76 26.28 23.47 22.23 24.21 26.67 28.68 30.37 31.61 31.81 29.82 28.14 26.74 25.07 25.12 27.1 28.51 29.01 29.94 30.49 30.21 30.3 30.85 33.84 37.28 38.79 -9999 -9999 -9999 -9999 -9999 -9999 -9999 -9999 -9999
-9999 -9999 -9999 -9999 -9999 -9999 -12.5 -5.35 -4.85 -4.3325 -3.925 -3.7575 -3.4725 -3.2025 -2.9025 -2.5075 -2.3525 -2.33 -2.245 -2.04 0.652 0.605 0.593 0.624 1.204 1.649 1.487 1.301 1.051 0.784 0.677 0.652 0.67 0.691 0.684 0.707 0.734 0.737 0.732 0.758 0.831 0.963 1.205 1.472 1.723 1.977 2.261 2.54 2.812 3.04 3.138 3.161 3.196 3.243 3.222 3.139 3.13 3.25 3.291 3.412 3.556 3.673 3.715 3.806 3.913 4.023 4.116 4.209 4.185 3.952 3.55 3.147 2.906 2.737 2.66 2.529 2.205 2.32 2.822 3.226 3.409 3.271 3.194 3.287 3.348 3.432 3.622 3.495 3.403 3.405 3.434 3.513 3.413 3.422 3.581 3.78 3.848 3.473 3.028 3.251 3.714 4.049 4.31 4.487 4.643 4.772 4.895 5.695 6.6 8.025 9.205 9.51 9.515 10.13 10.515 10.06 7.605 4.783 4.297 4.108 4.166 4.378 4.407 4.324 4.287 4.414 4.696 4.845 5.305 7.595 8.805 9.265 9.935 9.975 9.45 7.82 7.045 9.535 11.6 12.655 12.44 11.78 11.32 12.105 13.065 14.17 15.165 15.96 16.39 16.045 15.09 13.91 13.145 13 12.735 12.585 12.94 13.17 13.33 13.88 14.535 15.38 16.03 16.375 16.41 16.82 17.015 16.965 17.66 18.52 19.185 19.74 20.08 20.11 19.755 19.045 18.1 17.465 17.455 17.82 18.83 20.14 22.59 24.58 25.89 25.66 23.91 21.88 21.78 23.28 25.03 26.11 26.97 28.69 28.99 27.13 24.17 22.87 23.29 23.22 23.28 22.77 20.14 18.47 17.105 16.075 15.405 15.615 15.73 15.48 15.745 16.665 18.56 20.97 21.96 19.925 18.88 17.63 16.295 16.22 17.025 17.755 17.35 16.385 16.165 16.96 18.01 18.945 19.29 19.38 19.635 20.43 22.79 26.44 29.17 28.15 25.77 24.12 24.71 26.66 28.72 30.79 32.91 33.15 31.85 31.18 -9999 -9999 -9999 -9999 -9999 -9999 -9999 -9999 -9999 -9999 32.82 34.46 36.85 -9999 -9999 -9999 -9999 -9999 -9999 -9999 -9999 -9999 -9999
-9999 -9999 -9999 -9999 -9999 -9999 -12.5 -5.37 -5.4625 -5.64 -5.4375 -4.3125 -3.5225 -2.9975 -2.6425 -2.3175 -2.1875 -2.1325 -2.045 0.72 0.658 0.63 0.628 1.025 1.98 1.979 1.686 1.579 1.415 1.21 0.989 0.886 0.858 0.835 0.806 0.761 0.762 0.819 0.892 0.989 1.154 1.271 1.436 1.698 1.931 2.158 2.487 2.795 3.049 3.255 3.351 3.393 3.41 3.374 3.308 3.32 3.393 3.458 3.495 3.605 3.752 3.857 3.887 3.924 3.989 4.063 4.12 4.175 4.106 3.752 3.191 2.749 2.531 2.42 2.388 2.286 2.147 2.472 2.956 3.337 3.658 3.76 3.746 3.784 3.785 3.84 3.922 3.767 3.851 3.807 3.822 3.862 3.731 3.777 3.825 3.992 3.956 3.457 3.048 3.254 3.65 3.843 4.046 4.215 4.51 4.863 5.445 6.625 7.615 8.24 8.095 8.435 9.375 10.24 10.57 9.32 5.105 4.279 4.048 4.232 4.32 4.273 4.281 4.358 4.628 4.887 6.215 6.605 6.045 6.435 7.61 8.85 10.1 10.605 10.615 9.225 7.895 10.6 12.325 12.99 13.115 13.225 12.935 13.015 13.69 14.875 15.845 16.245 16.42 16.215 15.43 14.61 14.18 14.025 13.72 14.025 14.46 14.445 14.105 14.605 15.695 16.4 17.09 17.61 17.68 17.74 17.78 17.77 18.35 19.1 19.545 19.75 19.865 19.685 19.075 18.01 17.01 16.705 17.215 18.08 19.11 20.49 22.92 24.86 25.61 24.8 22.69 20.41 20.54 22.63 24.46 25.2 25.7 26.07 25.89 24.68 22.23 21.1 22.35 23.23 23.39 22.62 19.99 18.43 17.38 16.58 16.345 16.755 16.97 16.735 17.05 17.51 18.63 21.07 22.95 21.66 19.45 17.56 17.1 17.54 18.065 18.495 18.435 17.935 17.095 16.54 17.085 18.1 18.805 19.565 20.52 21.17 23.25 28.04 30.37 29.78 28.42 27.24 27.21 28.85 31.01 -9999 -9999 -9999 -9999 -9999 -9999 -9999 -9999 -9999 -9999 -9999 -9999 -9999 -9999 -9999 -9999 -9999 -9999 -9999 -9999 -9999 -9999 -9999 -9999 -9999 -9999 -9999 -9999
-9999 -9999 -9999 -9999 -9999 -9999 -12.5 -6.6325 -6.6425 -6.685 -5.9475 -4.4475 -3.5775 -2.8775 -2.4 -2.105 -2.005 -1.835 0.671 0.682 0.67 0.651 0.897 2.022 2.549 2.313 2.019 1.855 1.757 1.736 1.636 1.458 1.283 1.181 1.105 1.036 1.025 1.175 1.337 1.526 1.686 1.659 1.657 1.957 2.297 2.509 2.685 3.006 3.227 3.357 3.418 3.41 3.396 3.395 3.399 3.454 3.531 3.601 3.65 3.724 3.784 3.845 3.871 3.895 3.93 3.982 4.055 4.109 4.034 3.694 3.015 2.469 2.183 2.109 2.227 2.171 2.321 2.837 3.304 3.633 3.975 4.218 4.287 4.312 4.223 4.173 4.114 4.001 4.194 4.235 4.252 4.214 4.082 4.14 4.15 4.286 4.173 3.636 3.211 3.132 3.223 3.324 3.388 3.515 3.795 4.238 4.662 4.942 5.605 5.65 6.58 8.495 9.855 10.65 10.34 8.025 4.703 4.056 4.212 4.69 4.954 4.962 4.914 4.763 5.545 7.295 8.56 8.99 8.485 7.635 8.335 9.32 10.265 11.23 11.99 10.995 8.7 10.425 11.95 12.31 12.665 13.415 14.025 14.335 14.83 15.62 16.25 16.38 16.245 15.88 15.67 15.595 15.33 15.08 14.9 15.455 15.74 15.875 15.375 15.41 16.525 17.5 17.985 18.325 18.405 18.38 18.415 18.63 18.95 19.335 19.44 19.43 19.31 19 18.1 16.89 16.21 16.74 17.53 18.39 19.45 20.99 22.8 24.46 25.34 24.58 22.18 19.815 19.875 22 23.6 23.62 23.34 23.15 23.17 22.49 20.43 19.725 20.99 22.37 22.71 22.2 20.97 19.43 18.515 17.795 17.69 18.055 18.305 18.205 18.465 19.11 19.245 20.83 22.77 21.33 19.215 17.86 18.395 18.99 19.575 20.4 20.25 19.57 18.47 17.515 17.565 18.85 20.28 21.88 23.41 23.75 23.86 26.33 27.79 28.81 29.33 29.47 29.73 -9999 -9999 -9999 -9999 -9999 -9999 -9999 -9999 -9999 -9999 -9999 -9999 -9999 -9999 -9999 -9999 -9999 -9999 -9999 -9999 -9999 -9999 -9999 -9999 -9999 -9999 -9999 -9999 -9999 -9999
-9999 -9999 -9999 -9999 -9999 -9999 -9999 0.5 -6.865 -6.715 -5.7425 -4.26 -3.1725 -2.5825 -2.2225 -4.98 -4.865 0.711 0.679 0.666 0.651 0.703 1.676 2.727 2.817 2.656 2.393 2.159 2.075 2.09 2.095 1.978 1.756 1.526 1.421 1.331 1.313 1.459 1.692 2.06 2.23 2.035 1.91 2.324 2.678 2.876 2.935 3.057 3.228 3.346 3.392 3.371 3.349 3.376 3.424 3.488 3.573 3.639 3.648 3.657 3.656 3.691 3.723 3.747 3.775 3.846 3.953 4.035 4.013 3.78 3.113 2.364 2.027 2.165 2.415 2.708 2.965 3.412 3.778 4.084 4.403 4.634 4.725 4.702 4.571 4.441 4.294 4.316 4.506 4.633 4.691 4.58 4.485 4.566 4.57 4.585 4.279 3.868 3.601 3.465 3.283 3.246 3.26 3.271 3.309 3.446 3.793 4.106 4.421 4.889 6.85 8.785 10.085 10.51 8.37 4.89 4.257 4.011 4.419 4.993 6.845 7.705 7.8 5.985 7.105 8.72 9.72 10.385 10.165 9.49 9.895 10.53 10.96 12.2 13.385 12.44 9.915 9.835 10.725 11.855 12.86 13.47 14.47 15.425 15.88 16.105 16.4 16.34 15.965 15.49 15.44 15.81 16.05 15.98 16.045 16.64 17.08 17.21 16.57 16.565 17.185 17.95 18.535 18.67 18.56 18.525 18.715 19.005 19.275 19.065 18.75 18.335 18.04 17.8 16.915 16.17 16.135 17.235 18.09 19.04 20.26 21.89 23.11 24.13 24.73 24.05 21.13 19.33 19.845 21.69 22.73 22.19 20.87 20.82 21.61 21.5 19.895 19.025 19.835 21.5 21.9 21.89 21.66 20.49 19.315 18.775 18.925 19.35 19.66 19.82 20.16 21.56 22.1 22.88 22.85 20.41 19.275 18.55 19.465 20.97 22.15 23.81 23.81 22.47 19.98 18.655 18.04 19.035 22.3 25.44 27.35 28.05 27.45 28.04 28.22 27.93 -9999 -9999 -9999 -9999 -9999 -9999 -9999 -9999 -9999 -9999 -9999 -9999 -9999 -9999 -9999 -9999 -9999 -9999 -9999 -9999 -9999 -9999 -9999 -9999 -9999 -9999 -9999 -9999 -9999 -9999 -9999 -9999 -9999
-9999 -9999 -9999 -9999 -9999 -9999 -9999 -9999 0.5 -6.4925 -5.3175 -3.9225 -2.96 -2.37 -5.15 -5.0125 -4.98 -2.223 0.724 0.682 0.667 1.133 2.47 2.9 2.93 2.874 2.679 2.391 2.301 2.395 2.431 2.38 2.112 1.856 1.693 1.549 1.514 1.662 1.971 2.398 2.674 2.568 2.323 2.739 3.007 3.125 3.179 3.228 3.271 3.329 3.354 3.343 3.343 3.394 3.422 3.47 3.552 3.591 3.567 3.562 3.552 3.551 3.583 3.594 3.625 3.727 3.842 3.943 3.959 3.854 3.487 2.541 1.978 2.237 2.819 3.284 3.581 3.861 4.15 4.389 4.625 4.819 4.888 4.845 4.742 4.62 4.601 4.747 4.883 5.015 5.46 4.98 4.88 4.98 4.935 4.741 4.427 4.369 4.159 3.933 3.637 3.514 3.52 3.489 3.546 3.422 3.407 3.82 4.405 4.862 6.085 8.29 9.575 9.17 5.415 4.298 3.929 4.091 4.616 6.03 8.08 9.175 9.29 7.89 7.77 8.625 9.94 10.92 11.345 11.055 11.56 11.995 12.46 13.56 14.545 13.24 11.32 11.465 12.15 12.225 13.15 13.975 15 15.915 16.27 16.37 16.44 16.14 15.655 15.155 15.205 15.84 16.31 16.685 16.97 17.455 17.945 17.88 17.605 17.73 17.92 18.16 18.585 18.645 18.565 18.695 18.805 18.8 18.82 18.48 17.895 17.085 16.455 16.07 15.715 15.475 15.91 17.22 18.42 19.605 21.24 22.47 23.55 23.82 23.3 22.51 19.96 18.905 20 21.46 21.84 21.29 19.77 19.47 20.28 20.56 19.47 18.58 19.745 20.83 20.95 21.01 21.21 20.43 19.235 18.835 19.3 19.865 20.48 21.25 22.64 23.99 24.58 24.48 23.01 21.24 20.89 19.77 20.87 22.76 24.16 25.68 25.67 24.66 22.46 19.685 19.21 19.41 21.77 26.35 29.44 31.38 32.13 32.35 30.97 -9999 -9999 -9999 -9999 -9999 -9999 -9999 -9999 -9999 -9999 -9999 -9999 -9999 -9999 -9999 -9999 -9999 -9999 -9999 -9999 -9999 -9999 -9999 -9999 -9999 -9999 -9999 -9999 -9999 -9999 -9999 -9999 -9999 -9999
-9999 -9999 -9999 -9999 -9999 -9999 -9999 -9999 -9999 0.5 0.5 -3.8825 -2.8775 -2.265 -5.0475 -5.0675 -2.171 -2.209 -2.252 0.733 1.053 2.175 2.789 2.921 2.972 2.925 2.79 2.613 2.597 2.665 2.683 2.595 2.422 2.328 2.035 1.806 1.782 1.871 2.206 2.663 2.957 2.975 2.743 2.819 3.144 3.224 3.251 3.291 3.321 3.308 3.29 3.317 3.352 3.395 3.433 3.488 3.535 3.517 3.48 3.48 3.464 3.447 3.474 3.457 3.488 3.581 3.688 3.777 3.827 3.809 3.668 2.867 2.026 2.115 2.921 3.478 3.828 4.033 4.176 4.37 4.547 4.715 4.752 4.74 4.782 4.842 5.075 6.16 6.61 6.845 7 6.81 6.32 6.16 5.16 4.813 4.879 4.913 4.722 4.365 3.985 3.794 3.771 3.797 3.988 3.746 3.407 3.692 4.147 4.409 4.847 6.85 8.155 6.3 4.441 3.869 3.942 4.273 4.637 5.815 8.18 9.375 9.635 9.465 9.635 9.52 10.32 11.395 12.12 12.51 13.01 13.19 13.635 14.39 14.985 13.805 13.485 13.17 13.535 13.515 13.325 14.195 15.375 16.34 16.465 16.38 16.25 15.815 15.25 14.76 14.97 15.69 16.23 16.8 17.23 17.625 18.07 17.99 17.775 18.035 18.225 18.265 18.155 18.055 18.285 18.665 18.55 18.125 17.77 17.64 17.14 16.28 15.525 14.77 14.755 15.02 15.755 16.865 18.165 19.515 21.05 22.3 22.91 21.98 21.03 20.63 19.28 18.4 19.58 20.05 20.28 19.92 19.195 18.755 19.185 19.455 18.735 17.83 19.145 19.61 19.59 19.63 19.785 19.665 18.775 18.685 19.21 19.735 20.4 21.57 23.31 24.69 25.26 25.19 24.41 23.41 22.97 22.03 22.37 23.67 25.47 26.83 26.61 25.51 23.7 20.83 21.19 22.03 21.52 23.72 27.44 31.52 34 34.89 -9999 -9999 -9999 -9999 -9999 -9999 -9999 -9999 -9999 -9999 -9999 -9999 -9999 -9999 -9999 -9999 -9999 -9999 -9999 -9999 -9999 -9999 -9999 -9999 -9999 -9999 -9999 -9999 -9999 -9999 -9999 -9999 -9999 -9999 -9999
-9999 -9999 -9999 -9999 -9999 -9999 -9999 -9999 -9999 -9999 -9999 0.5 -2.6325 -2.135 -2.135 -2.144 -2.192 -2.259 -2.228 1.162 1.994 2.542 2.803 2.907 2.956 2.917 2.852 2.824 2.853 2.849 2.827 2.759 2.734 2.704 2.44 2.186 2.133 2.131 2.339 2.823 3.085 3.159 2.996 2.57 2.753 2.937 3.111 3.19 3.231 3.226 3.237 3.308 3.38 3.424 3.444 3.466 3.462 3.432 3.396 3.35 3.34 3.28 3.307 3.226 3.254 3.366 3.482 3.566 3.667 3.742 3.605 2.753 1.989 2.156 2.989 3.543 3.847 4.011 4.05 4.133 4.266 4.422 4.571 4.731 4.945 5.78 6.925 7.765 8.17 8.055 7.83 7.555 6.82 6.24 5.815 5.72 5.825 5.935 5.095 4.569 4.176 4.079 4.025 4.048 4.305 4.087 3.594 3.468 3.724 4.183 4.797 5.6 5.095 4.511 3.948 3.88 4.141 4.536 4.924 6.32 7.865 9.115 9.855 10.115 10.475 10.72 11.255 11.955 12.5 12.925 13.365 13.63 13.75 14.195 15.09 15.155 14.94 14.62 14.76 14.725 14.385 15.02 16.005 16.485 16.115 15.825 15.785 15.34 14.745 14.35 14.73 15.49 16.045 16.635 17.1 17.635 17.685 17.285 17.325 17.75 17.89 17.84 17.585 17.31 17.77 18.295 18.085 17.385 16.81 16.865 16.55 15.715 14.87 14.37 14.92 15.455 16.2 16.855 18.015 19.405 20.52 21.24 21.61 20.41 19.45 19.18 18.19 17.59 18.545 19.025 19.145 18.95 18.6 17.935 17.8 18.435 17.795 16.835 17.83 18.465 18.705 19 19.19 18.805 17.94 18.17 18.77 19.47 20.5 22.08 23.59 24.71 25.36 25.48 25.52 25.13 24.77 24.15 23.79 24.91 26.83 27.86 27.14 25.59 23.48 21.48 22.73 25.11 24.88 23.86 25.89 30.31 33.92 -9999 -9999 -9999 -9999 -9999 -9999 -9999 -9999 -9999 -9999 -9999 -9999 -9999 -9999 -9999 -9999 -9999 -9999 -9999 -9999 -9999 -9999 -9999 -9999 -9999 -9999 -9999 -9999 -9999 -9999 -9999 -9999 -9999 -9999 -9999 -9999
-9999 -9999 -9999 -9999 -9999 -9999 -9999 -9999 -9999 -9999 -9999 -9999 0.5 -2.08 -2.1525 -2.203 -2.257 -2.25 -2.144 1.41 2.469 2.731 2.775 2.862 2.937 2.961 2.955 2.991 3.011 2.987 2.952 2.893 2.877 2.922 2.85 2.714 2.646 2.559 2.558 2.812 3.106 3.217 2.938 2.188 2.164 2.446 2.559 2.72 3.098 3.238 3.231 3.291 3.357 3.381 3.368 3.334 3.316 3.308 3.235 3.09 3.039 3.008 3.077 3.043 3.038 3.081 3.16 3.291 3.506 3.654 3.454 2.426 1.876 2.348 3.086 3.491 3.781 3.794 3.763 3.965 4.15 4.393 4.719 4.945 6.155 7.36 8.25 8.695 8.86 8.415 7.89 7.545 7.17 7.05 6.675 6.21 5.845 6.17 5.465 4.734 4.489 4.418 4.307 4.315 4.634 4.475 4.005 3.582 3.52 3.993 4.566 4.644 4.262 3.879 3.785 3.983 4.391 4.792 6.015 7.88 9.34 10.18 10.58 10.66 10.825 11.235 11.345 11.415 11.605 12.1 12.25 12.21 12.21 13.155 14.755 15.575 15.57 15.665 15.725 15.655 15.395 15.735 16.31 16.53 15.68 15.19 15.08 14.56 14.015 14.005 14.535 15.19 15.735 16.33 16.875 17.33 17.115 16.455 16.575 17.05 17.165 17.075 16.775 16.725 17.28 17.74 17.58 16.885 16.015 15.955 16.215 15.345 14 14.57 15.8 16.49 17.09 17.6 18.4 19.555 20.5 20.77 20.23 19.5 18.565 17.885 17.16 17.095 17.985 18.35 18.215 18.215 18.255 17.515 16.665 17.17 16.375 16.505 17.295 17.735 18.35 18.83 18.745 17.805 17 17.71 18.775 19.75 21.15 22.45 23.47 24.25 24.64 24.88 25.18 25.23 25.4 25.57 25.63 26.53 28 28.68 27.91 26.12 23.67 22.08 23.15 25.76 27.19 26.84 26.27 28.47 -9999 -9999 -9999 -9999 -9999 -9999 -9999 -9999 -9999 -9999 -9999 -9999 -9999 -9999 -9999 -9999 -9999 -9999 -9999 -9999 -9999 -9999 -9999 -9999 -9999 -9999 -9999 -9999 -9999 -9999 -9999 -9999 -9999 -9999 -9999 -9999 -9999
-9999 -9999 -9999 -9999 -9999 -9999 -9999 -9999 -9999 -9999 -9999 -9999 -9999 0.5 0.869 -2.212 -2.277 -2.249 -2.159 -1.812 1.917 2.411 2.63 2.866 2.961 3.012 3.049 3.078 3.1 3.1 3.099 3.068 3.042 3.092 3.137 3.107 3.052 2.992 2.945 2.91 3.092 3.234 3.006 2.197 2.181 2.843 3.265 3.223 3.318 3.279 3.238 3.262 3.283 3.277 3.255 3.195 3.162 3.105 2.892 2.806 2.824 2.887 2.929 2.927 2.887 2.86 2.849 2.983 3.31 3.502 3.247 2.234 1.822 2.281 2.875 3.085 3.206 3.424 3.861 4.24 4.505 4.712 4.952 6 7.255 8.405 9.24 9.295 9.015 8.52 7.985 7.67 7.39 6.955 6.22 5.34 5.26 6.26 6.335 5.405 4.909 4.718 4.548 4.53 4.888 4.954 4.628 4.046 3.518 3.672 3.951 3.873 3.698 3.71 3.742 3.873 4.364 4.888 6.55 8.37 10.045 10.91 11.175 11.035 10.795 10.65 9.725 9.175 9.25 9.88 10.235 10.34 11.47 13.28 14.55 15.08 15.355 15.95 16.035 16.145 16.055 15.985 16.245 16.145 15.15 14.385 14.115 13.89 13.93 14.285 14.76 15.315 15.835 16.335 16.675 16.7 16.445 15.85 15.575 16.11 16.17 16.11 16.025 16.435 16.99 17.35 17.16 16.48 15.445 15.025 15.46 14.715 13.71 14.81 16.185 17.17 17.93 18.375 18.87 19.775 20.4 19.955 19.425 18.89 18.415 17.415 16.39 16.81 17.655 17.59 17.475 17.815 17.945 17.31 15.77 15.24 15.815 16.835 16.92 17.42 18.005 18.275 17.825 16.645 16.61 17.85 18.945 19.66 20.66 21.93 22.6 22.88 23.41 23.89 24.61 25.43 26.1 26.67 27.19 27.99 28.93 29.01 28.21 26.81 24.83 23.63 24.11 25.64 27.33 -9999 -9999 -9999 -9999 -9999 -9999 -9999 -9999 -9999 -9999 -9999 -9999 -9999 -9999 -9999 -9999 -9999 -9999 -9999 -9999 -9999 -9999 -9999 -9999 -9999 -9999 -9999 -9999 -9999 -9999 -9999 -9999 -9999 -9999 -9999 -9999 -9999 -9999 -9999 -9999
-9999 -9999 -9999 -9999 -9999 -9999 -9999 -9999 -9999 -9999 -9999 -9999 -9999 0.845 0.885 0.841 -2.238 -2.219 -2.171 -1.979 -1.535 2.194 2.59 2.86 3.001 3.037 3.08 3.094 3.132 3.147 3.168 3.173 3.134 3.155 3.094 2.849 2.797 3.031 3.146 3.048 2.868 2.923 2.94 2.361 2.703 3.367 3.484 3.397 3.369 3.308 3.191 3.149 3.161 3.157 3.143 3.064 2.959 2.854 2.73 2.845 2.908 2.933 2.919 2.893 2.864 2.804 2.691 2.807 3.046 3.239 3.093 2.243 1.753 2.057 2.521 2.898 3.285 3.655 4.128 4.458 4.774 5.015 5.835 6.74 7.685 8.765 9.52 9.43 8.9 8.315 7.975 7.475 6.71 5.82 4.947 4.807 4.96 6.055 7 7.14 6.405 4.971 4.878 4.805 5.005 6.35 5.515 4.533 3.892 3.564 3.58 3.627 3.754 3.935 3.934 3.827 3.943 4.321 4.773 6.35 8.825 9.86 10.06 9.625 9.155 8.26 6.845 6.885 7.465 8.145 8.905 9.515 10.815 12.24 13.36 13.69 14.465 15.695 16.02 16.09 16.195 16.01 15.965 15.73 14.675 13.595 13.33 13.77 14.485 14.985 15.395 15.83 16.28 16.63 16.745 16.215 15.525 14.75 14.615 15.075 15.13 15.18 15.62 16.355 16.925 17.175 16.78 15.755 14.72 13.86 13.91 13.59 14.18 15.525 16.675 17.7 18.415 18.985 19.58 20.38 20.45 19.495 18.67 18.28 18.135 17.195 15.975 16.355 16.865 17.02 17.385 17.62 17.61 17.095 15.22 14.355 16.225 16.74 16.3 17.11 17.71 17.3 16.245 15.38 16.16 17.065 17.735 18.335 19.12 19.82 20.51 21.57 23.26 24.22 25.19 26.04 27.05 27.82 28.44 28.81 29.12 28.76 28 26.99 26.08 25.58 25.91 26.48 -9999 -9999 -9999 -9999 -9999 -9999 -9999 -9999 -9999 -9999 -9999 -9999 -9999 -9999 -9999 -9999 -9999 -9999 -9999 -9999 -9999 -9999 -9999 -9999 -9999 -9999 -9999 -9999 -9999 -9999 -9999 -9999 -9999 -9999 -9999 -9999 -9999 -9999 -9999 -9999 -9999
-9999 -9999 -9999 -9999 -9999 -9999 -9999 -9999 -9999 -9999 -9999 -9999 -9999 -9999 0.944 1.014 -2.123 -2.207 -2.171 -2.11 -1.953 -1.31 2.322 2.656 2.903 2.956 2.984 3.036 3.081 3.131 3.147 2.813 2.334 2.326 2.431 2.374 2.223 2.461 3.092 3.081 2.642 2.468 2.341 2.316 2.983 3.415 3.403 3.349 3.331 3.282 3.113 2.993 2.981 2.904 2.908 2.823 2.684 2.621 2.743 2.994 3.085 3.08 3.029 2.994 3.016 2.908 2.68 2.686 2.882 2.92 2.719 2.065 1.704 2.141 2.874 3.395 3.764 4.002 4.274 4.559 4.865 5.55 6.115 6.59 7.16 7.875 8.755 9.12 8.685 7.77 7.25 6.485 5.225 4.83 4.604 4.769 5.31 6.445 7.475 7.975 7.45 6.935 6.755 5.785 6.05 6.875 7.055 6.23 4.701 4.034 3.834 3.806 3.887 4.084 4.258 4.198 4.017 3.932 4.098 4.576 5.835 7.67 7.26 6.595 5.95 5.575 6.395 8.185 9.3 9.97 10.02 10.5 10.78 11.38 12.75 13.78 14.82 15.475 15.915 16.115 16.27 15.66 14.84 14.755 14.085 12.985 13.225 14.115 14.955 15.575 15.98 16.325 16.445 16.595 16.465 15.52 14.595 13.855 13.66 14.115 14.34 14.88 15.81 16.445 16.665 16.7 16.25 15.06 13.6 12.745 12.9 13.91 15.16 16.135 16.975 17.83 18.355 19.125 19.975 21.21 20.74 19.33 18.03 17.38 17.345 16.27 15.23 15.7 16.795 17.385 17.625 17.3 16.835 16.31 14.22 14.025 16.105 16.21 15.72 16.69 17 15.815 14.775 15.345 16.33 16.975 17.775 18.825 19.73 20.34 21.51 22.92 24.09 24.9 25.71 26.57 27.7 28.65 29.18 29.28 28.93 28.43 27.75 27.06 26.9 26.97 27.47 -9999 -9999 -9999 -9999 -9999 -9999 -9999 -9999 -9999 -9999 -9999 -9999 -9999 -9999 -9999 -9999 -9999 -9999 -9999 -9999 -9999 -9999 -9999 -9999 -9999 -9999 -9999 -9999 -9999 -9999 -9999 -9999 -9999 -9999 -9999 -9999 -9999 -9999 -9999 -9999 -9999 -9999
-9999 -9999 -9999 -9999 -9999 -9999 -9999 -9999 -9999 -9999 -9999 -9999 -9999 -9999 -9999 1.338 1.143 -2.141 -2.131 -2.137 -2.168 -2.057 -1.87 -1.575 1.97 2.37 2.522 2.747 3.022 3.074 2.631 1.517 1.144 1.351 1.671 2.231 2.355 2.417 2.888 3.162 2.896 2.79 2.589 2.495 2.863 3.254 3.183 3.175 3.267 3.231 3.019 2.794 2.686 2.469 2.497 2.545 2.541 2.632 2.817 2.989 3.065 3.122 3.14 3.141 3.148 2.97 2.688 2.596 2.764 2.624 2.056 1.697 1.857 2.417 3.088 3.529 3.842 4.06 4.276 4.544 4.812 5.07 5.285 5.305 5.485 6.175 8.04 8.725 8.115 7.01 5.845 5.29 4.854 4.573 4.391 4.699 4.983 6.18 7.495 8.415 8.485 8.935 8.92 8.245 8.095 7.99 8.685 8.585 6.06 4.808 4.462 4.156 4.162 4.221 4.591 4.741 4.615 4.3 4.042 4.156 4.641 4.863 4.721 4.73 4.813 5.24 7.34 8.915 10.27 11.3 11.82 12.125 12.38 12.92 14.36 15.47 16.19 16.34 16.27 16.265 15.84 15.09 13.655 13.215 12.735 12.735 13.705 14.605 15.36 15.94 16.295 16.64 16.675 16.575 16.095 15.035 14.09 13.335 13.145 13.715 14.425 15.395 16.085 16.41 16.195 16.07 15.47 14.025 12.245 12.215 13.78 14.935 15.75 16.415 16.88 17.23 17.83 18.895 20.1 21.53 21.03 19.3 17.885 16.535 16.39 15.675 14.845 15.845 17.115 17.435 17.475 16.61 15.595 14.92 12.92 13.88 15.645 15.135 15.41 16.215 15.57 14.165 14.71 16.15 17.305 18.1 19.035 20.1 21.54 22.34 23.05 23.63 24.15 24.68 25.74 26.85 27.85 28.7 29.2 29.12 28.74 28.13 27.43 26.84 26.99 27.48 28.02 -9999 -9999 -9999 -9999 -9999 -9999 -9999 -9999 -9999 -9999 -9999 -9999 -9999 -9999 -9999 -9999 -9999 -9999 -9999 -9999 -9999 -9999 -9999 -9999 -9999 -9999 -9999 -9999 -9999 -9999 -9999 -9999 -9999 -9999 -9999 -9999 -9999 -9999 -9999 -9999 -9999 -9999
-9999 -9999 -9999 -9999 -9999 -9999 -9999 -9999 -9999 -9999 -9999 -9999 -9999 -9999 -9999 1.57 1.439 1.032 -2.11 -2.163 -2.179 -2.185 -2.186 -2.19 -2.076 1.506 2.126 2.603 2.969 2.8 1.715 -1.874 -1.917 -1.892 -1.687 -1.139 2.309 2.68 2.738 2.925 2.555 2.775 3.027 3.006 2.907 2.814 2.718 2.719 2.984 3.053 2.845 2.483 2.301 2.45 2.597 2.577 2.601 2.808 2.94 2.952 3.009 3.111 3.158 3.135 3.098 2.952 2.731 2.547 2.435 2.155 1.695 1.868 2.36 2.792 3.102 3.385 3.689 3.972 4.157 4.364 4.619 4.78 4.571 4.4 4.601 5.525 6.75 6.94 6.62 5.47 4.797 4.645 4.685 4.331 4.082 4.331 4.544 4.914 6.595 8.135 8.735 9.335 10.075 10.17 9.995 9.815 10.03 9.64 8.615 6.36 4.682 4.451 4.5 4.411 4.773 5.71 5.895 4.833 4.392 4.17 4.215 4.334 4.616 5.005 6.535 6.245 8.005 9.735 10.64 11.815 12.82 13.33 13.81 14.53 15.54 16.4 16.795 16.645 16.255 15.595 14.485 13.42 12.255 11.915 12.415 13.525 14.46 15.165 15.735 16.2 16.44 16.69 16.69 16.5 15.805 14.71 13.655 12.83 12.915 13.705 14.695 15.725 16.23 16.205 15.615 15.06 14.575 13.09 11.43 11.91 13.505 14.68 15.255 15.735 16.28 16.85 17.585 18.78 20.27 21.49 21.13 19.595 18.215 16.59 15.27 14.435 14.605 16.385 17.23 17.19 16.805 15.415 13.76 12.77 11.48 13.095 13.885 13.685 14.845 14.845 13.66 13.745 15.005 16.395 17.595 18.67 19.725 21.45 22.8 23.33 23.3 23.21 23.39 24.09 25.55 26.8 27.52 28.2 28.44 28.19 27.82 27.7 26.9 25.99 26.43 27.23 -9999 -9999 -9999 -9999 -9999 -9999 -9999 -9999 -9999 -9999 -9999 -9999 -9999 -9999 -9999 -9999 -9999 -9999 -9999 -9999 -9999 -9999 -9999 -9999 -9999 -9999 -9999 -9999 -9999 -9999 -9999 -9999 -9999 -9999 -9999 -9999 -9999 -9999 -9999 -9999 -9999 -9999 -9999
-9999 -9999 -9999 -9999 -9999 -9999 -9999 -9999 -9999 -9999 -9999 -9999 -9999 -9999 -9999 -9999 1.997 1.699 1.303 -1.807 -1.846 -1.909 -1.947 -1.972 -2.009 -1.902 1.668 2.372 2.691 2.287 -1.734 -2.05 -2.046 -2.031 -1.965 -1.718 -1.326 -0.883 2.506 2.658 2.459 2.269 2.433 2.518 2.345 2.188 2.049 -0.98 -0.839 -0.667 -0.758 -0.841 2.413 2.685 2.783 2.742 2.806 2.957 2.992 2.982 3.005 3.08 3.106 3.007 2.946 2.781 2.666 2.571 2.325 1.883 1.631 1.949 2.424 2.78 2.976 3.178 3.476 3.76 3.927 4.099 4.291 4.372 3.931 3.735 4.253 4.661 4.544 4.389 4.493 4.417 4.244 4.104 4.129 3.927 4.155 4.327 4.332 4.526 5.255 7.12 7.99 8.995 10.31 10.995 11.12 11.18 11.225 10.755 9.14 5.875 4.687 4.729 4.79 4.611 4.966 7.145 7.975 6.335 4.948 4.63 4.389 4.265 4.54 5.22 7.56 7.82 7.895 9.27 10.14 11.415 12.69 13.455 14.42 15.315 16.11 16.705 16.855 16.265 15.16 13.915 12.615 11.74 11.84 12.76 13.47 14.35 15.145 15.69 16 16.175 16.19 16.345 16.465 16.275 15.505 14.43 13.035 12.335 12.95 13.92 14.98 15.915 16.185 15.845 15.01 13.995 13.72 12.805 11.04 12.19 13.79 14.46 15.025 15.925 16.67 17.435 18.045 19.06 20.38 21 20.62 19.62 18.525 17.345 15.895 14.15 14.68 16.385 16.835 16.245 15.32 13.57 11.81 10.89 10.285 11.435 11.785 12.29 13.045 12.77 13.31 14.55 15.58 16.6 17.66 18.775 19.995 22.32 23.48 23.42 22.83 22.29 22.4 23.96 25.62 26.5 27.01 27.44 27.3 26.6 25.97 26.54 25.73 25.25 25.97 -9999 -9999 -9999 -9999 -9999 -9999 -9999 -9999 -9999 -9999 -9999 -9999 -9999 -9999 -9999 -9999 -9999 -9999 -9999 -9999 -9999 -9999 -9999 -9999 -9999 -9999 -9999 -9999 -9999 -9999 -9999 -9999 -9999 -9999 -9999 -9999 -9999 -9999 -9999 -9999 -9999 -9999 -9999 -9999
-9999 -9999 -9999 -9999 -9999 -9999 -9999 -9999 -9999 -9999 -9999 -9999 -9999 -9999 -9999 -9999 -9999 2.282 1.801 1.632 1.436 -1.705 -1.857 -2.075 -2.195 -2.178 -1.892 -1.39 -0.986 -1.321 -1.98 -2.064 -2.038 -2.006 -1.994 -1.95 -1.81 -1.583 -1.227 1.997 2.062 2.176 2.199 2.1 -1.193 -1.53 -1.589 -1.53 -1.382 -1.305 -1.428 -1.426 -1.159 -0.602 -0.226 2.807 2.888 2.919 2.885 2.903 2.956 2.98 3.026 2.679 -0.686 -0.944 -1.021 -1.024 -1.253 -1.44 -1.449 -1.271 2.099 2.515 2.874 2.985 3.12 3.331 3.48 3.673 3.859 3.751 3.295 3.307 3.75 3.81 3.516 3.394 3.54 3.648 3.612 3.61 3.774 3.959 4.427 4.686 4.681 4.557 4.745 5.7 6.71 8.125 9.825 11.2 12.085 12.145 11.805 10.49 8.49 6.095 5.2 6 5.725 4.837 6.19 8.675 9.77 9.36 8.08 5.715 4.905 4.506 4.389 4.532 5.22 7.625 8.345 9.015 10.6 12.115 13.115 13.69 14.47 15.29 15.735 16.33 16.61 15.96 14.68 13.3 12.035 12.055 12.535 13.37 14.02 14.755 15.38 15.775 15.93 15.89 15.725 15.735 15.965 15.935 15.59 14.63 13.145 12.205 12.96 14.265 15.175 15.81 16.08 15.595 14.665 13.535 12.695 11.875 10.725 12.585 14.295 14.97 15.39 16.05 16.915 17.77 18.525 19.255 19.93 20.1 19.775 19.06 18.03 17.085 15.57 13.785 14.56 15.895 15.835 14.11 12.47 10.955 9.645 9.25 9.355 9.935 10.325 10.83 11.47 12.355 14.025 15.395 16.53 17.535 18.61 19.73 21.57 23.25 23.45 22.07 21.01 20.94 22.06 23.97 25.45 26.04 26.42 26.48 26.07 25 24.12 24.48 24.44 25.13 25.63 -9999 -9999 -9999 -9999 -9999 -9999 -9999 -9999 -9999 -9999 -9999 -9999 -9999 -9999 -9999 -9999 -9999 -9999 -9999 -9999 -9999 -9999 -9999 -9999 -9999 -9999 -9999 -9999 -9999 -9999 -9999 -9999 -9999 -9999 -9999 -9999 -9999 -9999 -9999 -9999 -9999 -9999 -9999 -9999
-9999 -9999 -9999 -9999 -9999 -9999 -9999 -9999 -9999 -9999 -9999 -9999 -9999 -9999 -9999 -9999 -9999 2.466 2.28 2.157 1.87 1.666 1.498 -1.841 -2.125 -2.125 -2.087 -1.986 -1.896 -1.936 -2.098 -2.089 -2.023 -1.954 -1.957 -1.976 -1.98 -1.951 -1.78 -1.401 -1.058 -1.121 -1.225 -1.391 -1.601 -1.717 -1.765 -1.748 -1.688 -1.668 -1.686 -1.661 -1.736 -1.607 -1.192 -0.917 2.267 2.29 2.307 2.392 2.65 -0.17 -0.261 -1.121 -1.497 -1.506 -1.461 -1.469 -1.475 -1.457 -1.424 -1.406 -1.224 -0.845 -0.428 -0.354 2.738 2.946 3.098 3.244 3.324 3.073 2.75 2.834 3.016 3.033 3.043 3.153 3.278 3.356 3.55 3.848 4.198 4.297 4.355 4.615 4.836 4.895 4.77 4.945 6.88 8.865 10.55 12.005 12.88 12.82 12.31 11.375 10.465 8.685 8.015 8.96 7.515 5.335 6.395 9.575 11.41 11.595 9.83 8.18 6.575 4.844 4.757 4.501 4.554 5.315 7.835 9.695 11.83 12.94 13.02 13.15 14.025 14.335 14.395 15.425 15.565 14.41 13.265 12.685 11.81 11.715 12.485 13.42 14.26 14.875 15.35 15.505 15.48 15.4 15.265 15.315 15.58 15.715 15.625 14.81 13.06 11.865 13.03 14.485 15.145 15.595 15.935 15.66 14.65 13.675 12.965 11.45 10.31 12.515 14.13 14.635 15.37 16.265 17.225 18.055 18.77 19.31 19.695 19.575 18.745 17.83 16.78 15.73 14.325 13.37 15.245 15.805 14.4 11.445 9.405 8.52 8.77 9.56 10.37 11.095 11.405 11.985 12.55 13.13 13.975 15.34 16.69 17.935 19.195 20.68 22.83 24 23.2 20.58 19.625 20.75 22.4 23.75 24.31 24.8 25.43 25.45 24.84 23.75 22.53 22.81 24.25 25.07 25.31 25.64 -9999 -9999 -9999 -9999 -9999 -9999 -9999 -9999 -9999 -9999 -9999 -9999 -9999 -9999 -9999 -9999 -9999 -9999 -9999 -9999 -9999 -9999 -9999 -9999 -9999 -9999 -9999 -9999 -9999 -9999 -9999 -9999 -9999 -9999 -9999 -9999 -9999 -9999 -9999 -9999 -9999 -9999 -9999
-9999 -9999 -9999 -9999 -9999 -9999 -9999 -9999 -9999 -9999 -9999 -9999 -9999 -9999 -9999 -9999 -9999 -9999 2.581 2.6 2.249 2.044 1.834 1.498 -1.991 -2.122 -2.132 -2.125 -2.109 -2.1 -2.059 -1.972 1.134 1.293 1.351 -1.794 -1.932 -1.989 -1.96 -1.892 -1.793 -1.77 -1.8 -1.715 -1.598 -1.579 -1.607 -1.665 -1.653 -1.565 -1.458 -1.44 -1.605 -1.731 -1.738 -1.669 -1.429 -1.166 1.896 -1.132 -1.111 -0.967 -1.289 -1.591 -1.608 -1.592 -1.541 -1.51 -1.45 -1.372 -1.269 -1.258 -1.277 -1.155 -0.882 -0.704 -0.519 -0.342 2.768 2.83 2.759 2.586 2.691 2.835 2.924 3.136 3.361 3.542 3.669 3.749 3.813 4.168 4.535 4.664 4.657 4.774 4.897 5.635 5.51 5.315 7.405 9.48 11.25 12.645 13.195 13.04 12.665 12.645 11.68 10.51 10.73 10.91 8.195 7.48 7.815 9.355 12.2 12.49 11.025 9.815 8.015 6.815 5.715 4.802 4.576 4.659 6.185 9.105 11.645 12.57 11.13 11.29 12.27 12.22 13.33 14.485 14.01 12.29 11.535 11.545 10.96 10.675 12.225 13.685 14.455 14.91 15.195 15.125 15.015 14.93 14.91 15.17 15.595 15.52 15.205 14.34 12.565 11.565 13.265 14.685 15.18 15.45 15.51 15.24 14.45 13.62 13.185 11.915 9.95 11.865 13.525 14.45 15.21 16.115 17.18 18.055 18.81 19.33 19.42 19.055 17.835 15.945 14.475 13.32 12.665 13.93 15.54 14.99 12.635 9.465 7.655 8.28 10.165 11.76 12.795 13.52 13.825 14.31 14.645 14.705 14.785 15.55 16.49 17.75 19.275 21.15 23.43 24.3 22.6 19.475 19.045 20.54 22.2 22.92 22.56 22.82 23.82 24.03 23.42 22.11 21.18 22.13 23.66 24.07 24.25 24.84 -9999 -9999 -9999 -9999 -9999 -9999 -9999 -9999 -9999 -9999 -9999 -9999 -9999 -9999 -9999 -9999 -9999 -9999 -9999 -9999 -9999 -9999 -9999 -9999 -9999 -9999 -9999 -9999 -9999 -9999 -9999 -9999 -9999 -9999 -9999 -9999 -9999 -9999 -9999 -9999 -9999 -9999 -9999
-9999 -9999 -9999 -9999 -9999 -9999 -9999 -9999 -9999 -9999 -9999 -9999 -9999 -9999 -9999 -9999 -9999 -9999 2.9 2.84 2.769 2.634 2.407 2.009 1.432 -1.992 -2.115 -2.143 -2.132 -2.089 -1.931 1.277 1.482 1.728 1.91 1.779 -1.464 -1.79 -1.908 -1.918 -1.869 -1.832 -1.828 -1.805 -1.741 -1.642 -1.41 1.739 1.675 1.659 1.687 1.697 -1.403 -1.615 -1.734 -1.743 -1.663 -1.45 -1.359 -1.471 -1.631 -1.617 -1.615 -1.586 -1.542 -1.484 -1.384 -1.272 -1.251 -1.15 -0.972 -0.907 -1.102 -1.237 -1.182 -1.025 -0.821 -0.6 2.446 2.354 2.411 2.661 2.985 3.243 3.401 3.551 3.688 3.877 4.07 4.21 4.196 4.37 4.791 5.215 5.85 6.475 6.65 7.27 7.04 6.27 7.14 9.155 11.155 12.435 13.035 13.155 13.31 13.35 12.505 12.06 12.555 11.92 10.425 10.885 11.415 10.125 12.185 13.005 12.495 11.675 10.855 9.455 6.96 6.965 5.045 4.656 4.788 6.585 8.92 9.89 8.5 8.89 10.12 11.775 13.36 13.465 12.44 11.08 10.195 9.74 9.635 10.435 12.475 13.775 14.44 14.82 14.86 14.68 14.445 14.36 14.63 15.29 15.485 15.05 14.475 13.71 12.285 11.34 13.34 14.825 15.175 15.085 14.58 14.185 13.62 13.04 12.87 11.7 9.57 10.875 12.365 13.75 14.85 15.905 17.15 18.06 18.705 18.985 18.865 18.315 17.16 14.825 12.295 11.48 12.62 14.625 14.67 13.095 10.585 7.99 7 8.13 10.225 12 13.505 14.805 15.475 15.805 15.95 16 16.235 16.975 17.795 18.905 20.28 22.49 23.77 24.07 21.91 18.845 18.575 19.77 21.18 21.51 20.9 21.21 22.17 22.55 22.23 20.77 19.905 20.78 22.16 22.66 23.33 24.32 25.32 -9999 -9999 -9999 -9999 -9999 -9999 -9999 -9999 -9999 -9999 -9999 -9999 -9999 -9999 -9999 -9999 -9999 -9999 -9999 -9999 -9999 -9999 -9999 -9999 -9999 -9999 -9999 -9999 -9999 -9999 -9999 -9999 -9999 -9999 -9999 -9999 -9999 -9999 -9999 -9999 -9999 -9999
-9999 -9999 -9999 -9999 -9999 -9999 -9999 -9999 -9999 -9999 -9999 -9999 -9999 -9999 -9999 -9999 -9999 -9999 -9999 3.027 3.047 3.057 2.971 2.672 2.253 1.564 1.158 -1.987 0.951 1.09 1.394 1.681 1.969 2.273 2.476 2.356 2.221 1.846 -1.512 -1.705 -1.779 -1.788 -1.677 -1.525 -1.403 1.711 1.871 1.952 1.968 1.914 1.894 1.85 1.764 1.608 -1.568 -1.702 -1.714 -1.669 -1.637 -1.657 -1.648 -1.593 -1.509 -1.37 1.801 1.98 2.223 2.336 2.036 2.22 2.369 2.44 -0.742 -1.13 -1.234 -1.228 -1.187 -1.119 1.906 2.291 2.609 2.877 3.175 3.44 3.673 3.836 3.965 4.183 4.46 4.645 4.652 4.637 4.996 6.685 7.99 8.8 8.95 9.14 8.63 8.305 7.38 8.995 11.08 12.285 13.08 13.505 13.63 13.62 13.31 13.135 13.14 12.555 13.3 13.98 14.035 12.63 12.985 13.29 13.025 12.81 12.295 9.885 8.65 9.32 7.035 4.976 4.682 4.837 5.96 6.46 7.455 9.2 10.995 12.755 13.425 12.515 11.135 10.225 9.19 8.695 9.825 10.785 12.17 13.205 13.905 14.38 14.59 14.275 13.73 13.875 14.49 14.965 14.815 14.255 13.52 12.68 11.395 11.26 13.38 14.785 14.97 14.43 13.455 13.005 12.595 12.38 12.525 11.16 9.11 10.155 12.23 13.9 15.28 16.21 17.2 18.095 18.515 18.505 18.1 17.31 15.915 13.54 10.995 11.895 13.805 14.27 13.025 10.845 8.61 6.925 6.425 6.975 8.18 9.34 11.14 13.395 15.18 15.765 15.795 16.23 16.97 17.9 19.115 20.69 22.7 23.9 24.07 23.21 20.85 18.295 18 19.28 20 19.96 19.655 19.805 20.35 20.97 21.07 19.975 19.34 19.73 20.74 22.02 23.23 24.28 -9999 -9999 -9999 -9999 -9999 -9999 -9999 -9999 -9999 -9999 -9999 -9999 -9999 -9999 -9999 -9999 -9999 -9999 -9999 -9999 -9999 -9999 -9999 -9999 -9999 -9999 -9999 -9999 -9999 -9999 -9999 -9999 -9999 -9999 -9999 -9999 -9999 -9999 -9999 -9999 -9999 -9999 -9999
-9999 -9999 -9999 -9999 -9999 -9999 -9999 -9999 -9999 -9999 -9999 -9999 -9999 -9999 -9999 -9999 -9999 -9999 -9999 3.129 3.136 3.142 3.102 3.036 2.867 2.455 1.863 1.65 1.373 1.253 1.748 2.117 2.408 2.679 2.79 2.726 2.596 2.481 2.262 2.004 -1.12 -1.217 1.84 1.982 2.035 2.128 2.241 2.276 2.273 2.284 2.26 2.162 2.053 1.909 1.824 -1.387 -1.582 -1.626 -1.614 -1.595 -1.516 -1.375 1.739 1.912 2.129 2.317 2.564 2.607 2.217 2.68 2.855 2.85 2.746 2.353 2.101 -0.902 -1 -1.155 -1.175 2.385 2.788 3.001 3.236 3.515 3.786 4.026 4.241 4.464 4.696 4.9 5.095 5.185 6.045 7.39 8.955 10.03 10.5 10.685 10.175 10.045 8.9 9.28 10.89 12.165 12.91 13.3 13.505 13.875 13.95 13.835 13.655 13.435 14.01 14.61 14.31 13.88 13.67 13.35 12.84 12.965 13.08 12.195 11.35 10.465 9.74 6.52 4.955 4.758 4.753 4.983 7.855 10.775 12.11 12.645 12.13 11.195 10.395 8.785 8.11 8.9 10.265 11.245 11.855 12.91 13.89 14.54 14.705 14.245 13.4 13.245 13.895 14.31 14.125 13.525 12.535 11.305 10.495 11.95 13.77 14.685 14.69 14.035 12.63 11.565 10.985 11.325 11.73 9.975 8.89 11.09 13.43 14.785 15.675 16.19 16.92 17.68 18.04 17.815 17.02 15.925 14.44 12.175 10.39 12.375 13.2 12.31 10.575 8.715 7.24 6.385 6.3 6.525 6.87 7.3 8.22 10.425 12.885 13.805 14.075 15.135 16.345 17.92 19.485 21.12 22.98 23.47 22.69 20.86 19.155 17.48 17.445 18.87 19.35 19.03 18.775 19.105 19.56 19.85 19.71 19.285 18.91 19.585 20.92 22.48 -9999 -9999 -9999 -9999 -9999 -9999 -9999 -9999 -9999 -9999 -9999 -9999 -9999 -9999 -9999 -9999 -9999 -9999 -9999 -9999 -9999 -9999 -9999 -9999 -9999 -9999 -9999 -9999 -9999 -9999 -9999 -9999 -9999 -9999 -9999 -9999 -9999 -9999 -9999 -9999 -9999 -9999 -9999 -9999 -9999
-9999 -9999 -9999 -9999 -9999 -9999 -9999 -9999 -9999 -9999 -9999 -9999 -9999 -9999 -9999 -9999 -9999 -9999 -9999 3.162 3.156 3.159 3.137 3.068 2.915 2.508 2.231 2.287 1.789 1.386 1.969 2.553 2.855 2.983 3.012 3.039 3 2.967 2.851 2.589 2.424 2.333 2.401 2.459 2.545 2.574 2.691 2.737 2.664 2.691 2.829 2.718 2.429 2.042 2.15 2.238 -0.872 -0.924 -0.991 -1.045 2.163 2.207 2.124 2.165 2.339 2.484 2.705 2.645 2.284 2.836 3.248 3.312 3.199 2.859 2.829 -0.148 -0.46 -0.938 -1.135 2.366 2.775 3.049 3.249 3.499 3.783 4.057 4.291 4.507 4.735 4.971 5.855 6.575 7.39 8.38 9.67 10.56 11.375 11.695 11.55 11.505 10.535 9.955 10.765 11.48 12.275 12.825 13.45 13.875 14.055 14.22 14.15 14 13.87 14.055 14.035 13.905 13.47 12.57 12.145 12.755 13.225 13.205 12.99 12.08 9.49 8.24 8.22 6.355 4.926 4.836 6.1 9.81 11.16 10.59 9.57 8.65 8.515 7.715 8.635 9.57 10.435 11.765 12.395 13.23 14.195 14.86 14.85 14.35 13.295 12.575 12.825 13.49 13.56 13.135 12.02 10.29 10.205 12.53 13.835 14.43 14.35 13.645 12.385 10.72 9.445 10.01 10.065 8.455 9.26 11.81 13.66 14.595 15.315 15.81 16.58 17.225 17.28 16.875 15.795 14.285 12.545 10.455 9.785 11.715 11.69 9.965 8.26 7.015 6.405 6.56 7.22 7.69 7.845 7.63 7.35 8.26 10.245 12.14 14.12 15.855 17.37 18.98 20.33 21.53 22.22 21.75 20.42 19.04 17.665 16.335 16.89 18.065 18.065 17.82 18.22 18.975 19.295 19.045 18.56 18.485 19.12 20.36 21.75 -9999 -9999 -9999 -9999 -9999 -9999 -9999 -9999 -9999 -9999 -9999 -9999 -9999 -9999 -9999 -9999 -9999 -9999 -9999 -9999 -9999 -9999 -9999 -9999 -9999 -9999 -9999 -9999 -9999 -9999 -9999 -9999 -9999 -9999 -9999 -9999 -9999 -9999 -9999 -9999 -9999 -9999 -9999 -9999 -9999 -9999
-9999 -9999 -9999 -9999 -9999 -9999 -9999 -9999 -9999 -9999 -9999 -9999 -9999 -9999 -9999 -9999 -9999 -9999 -9999 -9999 3.159 3.12 3.054 2.93 2.76 2.492 2.279 1.816 1.51 1.639 2.251 2.897 3.09 3.122 3.19 3.309 3.352 3.349 3.275 3.077 2.804 2.7 2.846 2.867 2.995 2.998 3.036 3.033 2.934 2.918 3.069 3.095 2.769 2.264 2.52 2.658 2.784 2.918 2.691 2.67 2.802 2.696 2.447 2.482 2.582 2.687 2.876 2.669 2.41 3.044 3.436 3.558 3.498 3.217 3.3 0.324 -0.052 -0.731 -1.007 2.364 2.695 2.96 3.217 3.462 3.691 3.93 4.147 4.352 4.601 4.895 5.645 6.65 7.495 8.35 9.755 11 11.935 12.39 12.62 12.535 11.45 11.32 11.745 11.94 12.38 12.955 13.47 13.665 13.75 13.965 13.96 13.635 13.32 13.385 13.685 13.61 13.005 11.615 11.09 12.25 13.045 13.21 13.14 12.3 10.82 11.515 11.035 8.405 6.27 5.18 4.97 7.205 8.525 7.515 7.05 7.025 7.865 8.965 9.68 10.715 11.77 12.775 13.28 13.84 14.55 15 15.02 14.675 13.845 12.995 12.165 12.395 12.725 12.845 12.095 10.1 9.585 11.88 13.075 13.7 13.78 13.105 11.575 9.725 8.175 8.03 8.055 8.73 11.005 12.82 13.49 13.71 14.375 15.345 16.335 16.64 16.375 15.91 14.7 12.865 10.75 9.04 9.635 11.085 10.465 8.345 6.675 6.265 6.64 7.645 9.155 10.13 10.245 9.775 8.325 7.81 9.83 12.94 15.47 17.15 18.34 19.23 19.79 20.85 21.18 20.03 18.98 17.98 16.97 15.705 15.705 16.505 16.655 17.565 18.545 18.955 18.69 18.085 18.01 18.785 19.84 21.38 -9999 -9999 -9999 -9999 -9999 -9999 -9999 -9999 -9999 -9999 -9999 -9999 -9999 -9999 -9999 -9999 -9999 -9999 -9999 -9999 -9999 -9999 -9999 -9999 -9999 -9999 -9999 -9999 -9999 -9999 -9999 -9999 -9999 -9999 -9999 -9999 -9999 -9999 -9999 -9999 -9999 -9999 -9999 -9999 -9999 -9999 -9999
-9999 -9999 -9999 -9999 -9999 -9999 -9999 -9999 -9999 -9999 -9999 -9999 -9999 -9999 -9999 -9999 -9999 -9999 -9999 -9999 3.153 3.08 2.972 2.875 2.813 2.294 1.742 1.624 1.751 2.002 2.653 3.055 3.17 3.191 3.367 3.502 3.57 3.59 3.5 3.283 3.028 3.046 3.192 3.219 3.3 3.324 3.242 3.141 3.028 3.084 3.135 3.166 2.808 2.478 2.885 3.073 3.204 3.112 2.918 3.148 3.266 3.046 2.679 2.803 2.845 2.928 3.079 2.775 2.474 3.146 3.501 3.613 3.633 3.449 3.493 0.498 0.035 -0.807 -1.032 -0.695 2.569 2.808 3.092 3.33 3.474 3.685 3.943 4.172 4.426 4.687 4.88 5.36 6.205 7.805 9.825 11.29 12.245 12.67 12.715 12.4 12.06 12.125 11.945 12.055 12.335 12.935 13.16 13.14 13.275 13.54 13.345 12.88 12.685 13.03 13.245 13.205 12.595 10.74 10.145 11.485 12.33 12.765 13.09 13.16 13.045 13.23 12.185 9.37 7.555 6.88 5.495 5.41 6.145 6.525 7.065 8.03 9.39 10.92 11.275 11.895 12.935 13.485 13.64 13.96 14.41 14.75 14.88 14.575 14.025 13.195 12.485 11.775 11.615 12.52 12.4 10.765 8.925 10.125 11.675 12.625 12.93 12.245 10 7.625 6.875 7.26 8.615 10.545 12.185 13.09 12.82 12.835 14.03 15.18 15.915 16.07 15.71 14.91 13.435 11.495 9.36 8.395 9.99 10.765 9.43 7.27 6.145 6.625 7.655 8.615 9.92 11.62 12.595 12.555 10.73 8.445 9.255 12.25 14.86 16.53 16.895 17.225 18.49 19.515 19.87 19.065 17.915 17.525 17.17 16.09 14.96 15.4 16.735 18.07 18.58 18.345 17.605 17.735 18.35 19.32 20.25 -9999 -9999 -9999 -9999 -9999 -9999 -9999 -9999 -9999 -9999 -9999 -9999 -9999 -9999 -9999 -9999 -9999 -9999 -9999 -9999 -9999 -9999 -9999 -9999 -9999 -9999 -9999 -9999 -9999 -9999 -9999 -9999 -9999 -9999 -9999 -9999 -9999 -9999 -9999 -9999 -9999 -9999 -9999 -9999 -9999 -9999 -9999 -9999
-9999 -9999 -9999 -9999 -9999 -9999 -9999 -9999 -9999 -9999 -9999 -9999 -9999 -9999 -9999 -9999 -9999 -9999 -9999 -9999 -9999 3.113 3.031 2.942 2.58 1.835 1.854 2.138 2.4 2.369 2.698 3.062 3.251 3.37 3.528 3.665 3.728 3.816 3.736 3.397 3.235 3.314 3.436 3.51 3.536 3.554 3.435 3.263 3.198 3.184 3.128 3.022 2.781 2.642 3.07 3.29 3.353 3.129 3.274 3.435 3.424 3.12 2.866 3.102 3.08 3.085 3.194 2.948 2.459 2.745 3.257 3.528 3.683 3.673 3.622 3.59 0.077 -0.869 -1.051 -0.739 -0.459 2.735 2.958 3.191 3.336 3.629 3.89 4.047 4.207 4.305 4.409 4.688 5.595 8 9.8 11.1 12.2 12.75 12.615 12.41 12.335 12.38 12.245 12.425 12.49 12.285 12.185 12.285 12.67 12.965 12.605 11.945 12.025 12.725 12.87 12.725 12.175 10.165 9.34 10.62 11.035 11.62 12.55 12.6 12.905 13.38 12.975 11 9.365 8.265 6.86 6.02 7.055 8.44 8.555 9.76 10.89 11.76 12.575 12.89 13.275 13.4 13.45 13.59 13.985 14.455 14.765 14.675 14.26 13.605 13.285 12.655 11.365 11.885 12.665 11.715 9.545 8.42 9.835 11.685 11.91 10.835 8.445 6.41 7.135 8.84 10.155 11.365 12.345 12.77 12.065 12.18 13.665 14.735 15.445 15.625 15.215 14.055 12.16 9.9 8.225 8.47 10.21 10.13 8.185 6.385 6.17 7.38 8.985 10.005 10.96 12.71 14.17 14.515 13.37 10.42 8.77 10.025 12.535 14.015 13.9 15.21 17.36 18.535 18.885 17.955 16.935 17.3 17.18 16.43 15.265 15.275 16.875 17.93 17.735 17.02 16.635 17.52 18.645 19.555 -9999 -9999 -9999 -9999 -9999 -9999 -9999 -9999 -9999 -9999 -9999 -9999 -9999 -9999 -9999 -9999 -9999 -9999 -9999 -9999 -9999 -9999 -9999 -9999 -9999 -9999 -9999 -9999 -9999 -9999 -9999 -9999 -9999 -9999 -9999 -9999 -9999 -9999 -9999 -9999 -9999 -9999 -9999 -9999 -9999 -9999 -9999 -9999 -9999
-9999 -9999 -9999 -9999 -9999 -9999 -9999 -9999 -9999 -9999 -9999 -9999 -9999 -9999 -9999 -9999 -9999 -9999 -9999 -9999 -9999 3.108 2.987 2.64 2.09 1.863 2.277 2.615 2.771 2.603 2.657 3.081 3.367 3.546 3.619 3.679 3.779 3.902 3.763 3.53 3.501 3.553 3.633 3.682 3.703 3.697 3.584 3.408 3.278 3.233 3.209 3.093 2.879 2.794 3.106 3.34 3.383 3.28 3.437 3.506 3.435 3.081 2.994 3.29 3.408 3.419 3.311 3.179 2.92 2.507 2.881 3.396 3.684 3.765 3.758 3.735 0.324 -0.775 -1.086 -0.85 -0.52 -0.374 -0.312 2.831 3.106 3.529 3.908 3.945 3.898 3.922 4.181 4.613 5.19 7.145 8.44 10.16 11.46 11.91 11.57 12.085 12.305 12.39 12.56 12.66 12.185 11.07 11.29 12.055 12.22 12.115 11.55 11.065 11.735 12.505 12.555 12.18 11.255 9.445 8.31 9.34 10.02 11.23 11.99 11.49 12.15 12.935 12.585 11.92 11.335 10.285 9.185 7.41 7.885 9.795 10.07 10.595 11.93 12.83 13.325 13.24 12.935 12.94 13.1 13.39 13.865 14.355 14.615 14.675 14.685 14.395 14 12.975 11.04 11.43 12.72 12.355 10.615 8.465 8.59 10.505 10.725 9.405 6.97 6.19 7.98 9.61 10.59 11.47 12.21 12.19 10.91 11.07 12.71 14.005 14.955 15.205 14.795 13.42 11.03 8.72 7.575 8.745 10.335 9.47 6.93 5.725 6.36 8.05 10.085 11.66 12.685 14.05 15.28 15.58 15.005 12.785 10.18 9.07 9.94 10.87 11.675 13.555 15.475 16.875 17.105 16.165 15.995 16.835 16.575 15.88 14.9 14.815 16.175 16.755 16.21 15.945 16.59 17.66 -9999 -9999 -9999 -9999 -9999 -9999 -9999 -9999 -9999 -9999 -9999 -9999 -9999 -9999 -9999 -9999 -9999 -9999 -9999 -9999 -9999 -9999 -9999 -9999 -9999 -9999 -9999 -9999 -9999 -9999 -9999 -9999 -9999 -9999 -9999 -9999 -9999 -9999 -9999 -9999 -9999 -9999 -9999 -9999 -9999 -9999 -9999 -9999 -9999 -9999 -9999
-9999 -9999 -9999 -9999 -9999 -9999 -9999 -9999 -9999 -9999 -9999 -9999 -9999 -9999 -9999 -9999 -9999 -9999 -9999 -9999 -9999 -9999 3.05 2.669 1.978 1.939 2.589 2.922 3.052 3.036 2.924 3.116 3.428 3.555 3.534 3.501 3.583 3.675 3.562 3.598 3.629 3.643 3.691 3.746 3.806 3.793 3.674 3.512 3.38 3.35 3.296 3.143 2.869 2.836 3.12 3.292 3.354 3.364 3.449 3.392 3.234 3.084 3.05 3.259 3.492 3.604 3.618 3.477 3.225 2.73 2.724 3.307 3.651 3.805 3.838 3.842 0.548 -0.47 -1.038 -1.044 -0.961 -0.928 -0.933 -0.964 2.331 3.201 3.695 3.827 3.64 3.783 4.123 4.462 4.769 4.981 6.13 8.42 9.495 9.62 10.51 11.7 11.93 12.24 12.325 12.18 11.05 9.505 11.055 11.965 11.825 11.02 10.405 11.055 11.74 12.17 11.9 11.24 9.975 8.55 7.52 8.985 10.595 11.33 11.13 10.255 11.39 11.59 11.42 12.34 12.675 12.17 10.775 8.73 8.56 10.42 11.645 11.775 12.25 13.29 13.695 13.335 12.58 12.235 12.8 13.525 14.155 14.51 14.69 14.83 14.91 14.7 14.01 12.745 10.505 11.055 12.625 12.5 11.295 9.155 7.765 8.58 9.025 8.19 6.175 6.235 8.045 8.965 9.82 10.75 11.31 11.135 9.6 9.6 11.625 13.285 14.36 14.705 14.25 12.75 10.245 7.785 7.28 8.93 10.065 8.6 5.875 5.505 6.685 8.61 10.81 12.925 14.385 15.315 15.86 15.965 15.51 14.31 12.65 10.47 9.565 9.62 10.225 11.65 13.46 14.475 13.885 13.43 14.225 15.065 14.905 14.4 13.855 14.225 15.34 15.415 15.22 16.005 17.15 18.075 -9999 -9999 -9999 -9999 -9999 -9999 -9999 -9999 -9999 -9999 -9999 -9999 -9999 -9999 -9999 -9999 -9999 -9999 -9999 -9999 -9999 -9999 -9999 -9999 -9999 -9999 -9999 -9999 -9999 -9999 -9999 -9999 -9999 -9999 -9999 -9999 -9999 -9999 -9999 -9999 -9999 -9999 -9999 -9999 -9999 -9999 -9999 -9999 -9999 -9999 -9999
